9.616173 4.551222 87097.484375 821.288086 
3.951093 3.897320 6108.546875 3446.856445 
4.486274 3.521914 5703.166992 4503.152344 
3.482221 3.690641 3573.465820 3792.798828 
3.774884 3.850587 3535.028564 4208.024902 
4.069894 4.027293 4627.561035 6550.545898 
3.990722 3.111297 9551.154297 1905.280029 
3.294513 4.240212 2293.063477 5145.996582 
4.037719 3.679893 5642.387207 3373.782715 
3.528203 4.030338 2830.990479 6618.002441 
3.474763 3.580556 3926.364746 5145.708008 
3.314638 3.475549 2318.069336 4830.130371 
4.337731 3.677680 5285.557129 3476.501465 
3.418120 4.378982 2811.240723 6100.491211 
3.498677 4.201059 4228.765137 4813.331543 
3.467069 3.653860 3012.014404 5132.362305 
3.531294 4.252993 2711.926270 5259.013672 
3.984369 3.801185 4299.755859 5440.761719 
4.249876 4.854323 6825.465820 7286.749512 
4.047738 4.612457 6075.954102 4281.303223 
3.717691 3.706319 3941.293457 3976.736328 
4.612215 3.978161 7169.209473 4121.592285 
4.799858 4.012356 5305.858398 4582.906250 
3.865878 3.723680 4333.723145 2919.814453 
3.697936 3.812520 3856.279541 4604.332031 
3.853887 4.130529 3943.225586 3434.370361 
3.482968 3.776954 5752.180664 5529.718262 
4.295081 3.790242 7230.713867 2578.885010 
3.726143 4.172943 4585.948242 5411.163574 
3.846115 3.559521 5215.036621 4510.240234 
4.133105 3.796852 7072.418945 4610.159668 
4.335306 3.464635 3804.505859 2815.991455 
3.777084 3.704175 2688.105225 5042.697754 
4.218836 4.128325 4373.677734 6216.855469 
4.062308 4.342080 3937.351318 6217.636230 
4.527072 3.180962 3984.408691 2501.388428 
3.455998 3.878629 3258.884766 6122.459473 
3.803658 3.945461 2279.387451 3813.526367 
3.637602 3.997610 3941.058838 4152.528320 
3.647303 4.426637 4544.151367 4166.511230 
4.257432 3.828785 6604.360352 3874.936523 
4.167651 3.885231 3710.357910 3923.472900 
3.716810 3.620513 4516.747070 4235.909180 
3.645471 3.337561 5222.520508 4226.868652 
3.403846 3.647439 2508.594727 3964.125244 
3.955515 3.836035 5337.779785 4884.113281 
4.109860 3.717611 5728.556641 2310.218506 
3.607901 3.735265 4316.365723 3312.792236 
4.114948 4.369679 4097.500000 6477.297363 
4.128719 3.242531 7384.042480 2986.569092 
4.261693 3.859469 6493.002930 4374.071777 
3.495411 3.564100 2502.164551 4295.524414 
3.597867 3.964810 4025.005859 2498.695557 
3.871733 4.455731 4106.238770 4283.100098 
3.843456 3.722065 5269.857422 5351.466797 
3.676260 3.955497 4616.855469 4596.652344 
3.916692 3.973949 3629.452393 5332.749512 
3.634149 3.427301 6306.652344 3359.066650 
3.696127 3.979797 3917.406982 8073.045410 
3.410124 3.657032 4492.357422 4421.927246 
3.608352 4.438254 2751.735107 10215.039062 
3.840858 3.461441 6073.753906 3117.778564 
4.072531 3.912063 5843.638184 3681.021729 
3.747743 3.968995 4645.730957 4107.691895 
3.834435 4.138338 6853.134277 4400.389160 
3.797690 3.734155 2674.041016 4039.655762 
4.024282 3.754206 6749.948242 4234.763672 
3.899283 3.416229 4649.767090 3428.354004 
4.004259 3.786783 3704.767578 3571.451416 
4.390266 3.485851 4559.184570 3821.961182 
3.993429 3.549212 3931.480713 3273.375977 
3.994886 3.944986 5866.554688 3276.490723 
3.805703 4.235043 3272.520020 5686.164062 
4.260525 3.725141 3359.285156 3278.267578 
3.344255 4.121304 2695.309082 4677.102539 
4.320210 3.347840 6548.110352 3212.678955 
3.402282 4.138550 4109.485352 5103.033203 
3.802257 3.546698 3677.957520 2756.640625 
3.733427 4.067937 5143.064453 6244.636230 
4.006864 3.660557 3275.874023 7015.846680 
3.624696 3.822828 4557.742676 5279.450195 
4.022638 3.373051 3316.076416 3114.078613 
3.749364 4.195636 4168.223633 4757.756836 
3.814619 3.269769 3215.631836 3323.015137 
3.545577 4.326926 3930.251221 4321.757812 
3.839644 4.139452 2750.132324 4903.877930 
3.710958 4.066213 4284.332520 3204.560059 
4.275209 4.005145 5916.431641 3115.182129 
3.968680 3.951304 4445.507812 5634.984863 
3.632046 4.075179 3365.926514 4771.437500 
4.204762 3.892704 8522.683594 4132.604004 
4.010173 3.719859 9127.753906 3003.649414 
3.429446 3.687320 4873.857422 3925.054932 
3.338918 3.625407 2409.009521 4140.876465 
3.488052 3.859880 2444.895752 6237.370605 
3.879675 3.616792 5648.842773 4967.319336 
3.875894 3.862717 5691.497070 4340.629883 
4.031564 4.168084 3548.851562 4519.515137 
3.785497 4.167633 3989.419922 6253.918945 
3.786615 3.941870 4348.096680 6362.997070 
3.682052 3.536918 3263.025635 3768.517578 
3.663882 3.634443 2679.922607 3754.938232 
3.530060 4.022089 4473.334961 6180.034180 
3.765437 3.967400 4993.623047 5210.223145 
3.518209 3.619807 3894.159668 3767.841064 
4.301343 3.442734 4688.492676 4692.487305 
4.378679 3.881905 8405.101562 1891.720337 
3.807761 3.269498 4064.392822 2507.788330 
3.681093 4.485287 4196.708496 8583.870117 
3.956559 4.743984 5001.515625 5921.904297 
3.756503 3.740119 3688.220703 7741.649902 
3.557904 3.457257 3179.127197 4087.935059 
3.288061 3.890930 3045.784668 6169.487793 
3.668401 3.546149 4106.910156 3794.471436 
4.855014 4.089036 6085.704102 4916.050781 
3.933462 3.994154 4158.841797 6967.313965 
3.924224 3.513862 4981.415527 3799.732666 
3.151145 3.622299 2759.108643 3229.916504 
3.716292 4.410638 5765.436035 5289.810059 
3.746106 5.010633 3132.324219 8850.576172 
3.578216 3.868276 2923.113281 5185.012207 
4.236455 3.880344 6973.235352 5845.853027 
4.019119 3.950309 4948.958008 7126.083008 
4.052026 3.568720 3437.094238 4792.972656 
3.801074 4.055994 3207.222168 8160.004395 
4.004012 3.575425 4832.999023 5036.660645 
3.632921 3.984879 4644.011719 3374.397217 
3.537594 4.334205 4642.448242 3650.952637 
3.889766 4.429391 6260.148438 3330.149170 
3.319473 3.915627 2853.783203 5465.542480 
3.443504 4.257849 3276.574463 5897.814941 
3.429514 3.975990 2921.730225 4501.960449 
3.770790 3.416934 3533.077881 3127.471436 
3.873456 3.508263 3369.974121 4352.489258 
3.662768 3.905761 3085.685791 4104.405273 
3.284719 3.890080 2353.253662 7534.269531 
4.005868 4.033588 3841.885498 8422.557617 
4.254353 3.641587 4971.984375 2872.271729 
3.761573 3.764026 5173.187012 3822.540039 
3.526370 3.712417 3482.061768 4643.419434 
3.639362 4.199495 2651.394775 5287.806152 
3.989904 4.001793 3957.531494 4566.840820 
3.674020 3.623973 3600.393066 4178.929688 
3.675974 4.541993 4228.719727 3612.366699 
3.663180 3.383635 3824.521240 2726.937500 
3.943416 3.647903 4756.387695 3995.836182 
4.163850 3.332245 6682.218262 3140.324707 
4.176270 3.606356 4362.435059 3892.379395 
3.516768 4.081441 3393.365479 4662.948730 
4.114755 3.526597 6025.954102 2969.132324 
3.694690 4.044615 3273.791260 5377.486328 
4.196478 3.633906 2345.149170 3951.638916 
4.267345 4.256733 5255.125977 6517.802246 
3.229822 3.673922 2573.773193 2457.504395 
3.517440 3.654144 4613.817871 3276.000000 
4.187595 3.676823 6632.363770 5458.499023 
4.341234 3.841901 5663.776367 5061.046875 
3.525886 3.483260 2330.328125 3609.418457 
4.337831 3.523625 7268.207520 3668.872803 
3.643859 4.728430 3012.684082 8051.019531 
3.669720 3.743040 5359.619629 5974.574219 
3.278214 4.377494 2782.604736 5075.398438 
4.060671 3.520507 5873.043945 6884.184570 
3.724078 3.438470 4986.507324 2873.171143 
3.730191 4.367575 4335.180664 8733.635742 
3.559779 3.351342 4119.275391 2695.360596 
3.678094 3.148945 5185.698730 3208.926270 
4.341170 3.683870 4270.061523 3720.874268 
3.542627 5.025194 3984.230957 4870.416992 
3.980613 3.943012 4652.850586 4530.348145 
3.926111 3.613134 4102.945801 3762.537109 
3.833600 4.017576 4618.786133 4252.405762 
3.729636 4.005177 4309.611816 7945.819824 
3.424161 4.513212 2452.344727 6209.993164 
3.627769 3.858412 2919.136230 6002.384766 
3.344261 4.050014 2299.621338 6365.770020 
3.767627 4.111798 4997.927246 3206.172363 
4.067764 3.839830 5350.104980 3612.973633 
3.615118 3.918946 2693.227051 5041.670898 
3.824909 3.668787 4934.505371 4628.507812 
3.869934 3.352165 4490.824219 4065.844971 
3.263463 3.580310 3260.213135 4290.206543 
3.952668 3.517610 6050.165039 2975.890381 
3.858403 3.548291 4991.217773 3537.534912 
3.775415 4.136018 2525.533936 7087.854004 
3.903532 3.672220 5957.032227 3008.968018 
3.950871 3.907386 8836.782227 2729.317871 
3.448636 4.047696 3066.541992 5325.979492 
3.592977 5.005130 2802.578125 4728.033203 
3.912345 4.299554 5331.104004 5198.426270 
3.911959 3.639565 3427.187744 4847.824219 
3.450009 4.060739 3728.465332 4824.168457 
3.731889 3.637456 3892.254395 3720.906982 
3.751778 3.525692 6951.038086 3282.045166 
4.271911 4.349255 4525.655273 8676.791016 
4.006257 3.857428 3201.528076 6144.999512 
4.259531 3.682356 9432.244141 5374.577637 
3.528482 3.654657 2176.248047 5198.496582 
4.271423 4.106893 6903.855957 6406.915039 
3.652344 3.896929 3967.337158 4806.890625 
4.239544 3.822739 3613.230713 4227.163574 
3.769189 4.939555 3226.691162 3339.488281 
3.969333 3.815327 4329.638184 4539.664551 
3.783694 4.362382 5452.699219 6948.299316 
3.943300 3.817158 5046.993652 5169.690430 
3.509417 3.602938 2598.090820 4893.702637 
3.551324 4.156827 2608.821289 6539.247559 
3.854735 4.332324 3941.959473 7742.380859 
3.551136 4.084749 4066.249756 6797.267578 
3.891045 3.742895 4782.008789 4321.056152 
3.709973 4.022877 7037.009277 4924.604004 
3.751909 4.493730 4315.573730 4943.970703 
4.414011 3.584464 8670.959961 1802.521362 
3.494284 3.923036 4005.501953 5234.148438 
3.921233 3.761288 3945.128662 3631.211914 
4.346975 3.530354 5878.545898 2931.695068 
3.440258 3.599597 3181.705078 4629.368652 
4.342549 3.852005 8682.935547 5393.425781 
3.722265 3.982330 5259.049316 5214.055176 
3.164969 3.853716 2417.355469 6823.195801 
3.656524 3.893954 3274.754883 5261.572266 
4.019997 3.679455 5340.609863 4266.111816 
3.590557 4.193980 4303.570801 5613.163574 
4.216737 4.470041 5322.583984 2963.496582 
4.166537 3.654320 5877.961426 4536.549805 
3.764211 3.526056 5130.798828 3584.912842 
3.987198 3.659244 3952.064941 4441.884277 
3.859871 4.143598 4129.199707 4290.390625 
3.783559 3.692830 5327.474121 4283.105469 
3.746015 3.557818 4302.097656 4063.526367 
3.713527 3.809131 4262.691895 3852.900879 
4.354184 4.026690 8659.919922 4294.534180 
3.679772 4.076710 3294.121094 5361.260254 
3.975039 3.914570 3700.951172 3628.959961 
4.124731 3.905659 4914.149902 4003.095215 
3.568228 3.790467 2404.485352 4694.424316 
4.343125 4.709993 3566.229004 3500.036865 
3.540513 3.661304 4690.159668 4633.190430 
3.582805 4.092921 3977.741455 5929.913574 
3.417195 3.891198 2292.855225 8033.073730 
3.616148 3.535514 3073.180176 5033.858887 
3.244715 3.575731 3239.404541 5641.627930 
4.048149 3.798403 3253.392334 5900.178711 
3.529110 4.039596 2238.778076 7047.462402 
3.471263 4.083838 2750.097656 7597.493652 
3.486462 3.849411 3277.798828 5649.424316 
3.911577 4.371625 3849.962646 5824.630859 
4.182033 3.877203 3259.179443 6521.475098 
3.197161 3.828595 2482.063232 4998.698730 
3.470894 3.779170 3261.551025 5520.881348 
3.477968 3.466702 2585.181396 3041.210449 
4.168138 3.754541 8342.141602 3769.461426 
4.266191 3.281537 6642.148438 2852.397461 
3.909671 3.788248 3960.825439 3645.473389 
3.439452 3.792818 3159.785400 3683.909668 
5.004135 3.933773 10641.693359 3547.392822 
3.700742 3.824824 2949.752686 5946.084961 
3.805350 3.488738 3762.974854 5675.395020 
3.752015 3.415393 6243.713379 2898.778809 
3.657615 3.459027 4420.504883 3602.475586 
3.741047 3.519525 5587.091309 4412.266113 
3.959191 3.791471 4124.312500 5051.103516 
4.007875 3.348465 5346.050293 3069.490967 
3.485224 3.505320 4302.080566 4514.437500 
3.749596 3.931185 4394.207520 4082.003662 
3.356989 3.783609 3233.765869 3778.260742 
3.694120 3.926656 5022.792480 5596.578613 
3.807722 3.506993 4696.578125 2604.385742 
3.890031 3.808619 5217.722168 5540.495117 
3.824783 3.711244 3273.101807 4416.146484 
3.572857 3.953840 3451.078125 5398.222168 
3.640682 3.722355 3916.649414 3524.594482 
3.749141 3.487570 3144.421631 4371.118164 
3.954019 3.687586 5124.976074 2402.602051 
4.060641 4.979854 3850.317627 5621.116699 
3.470838 4.034717 2536.434326 4479.448242 
4.589364 3.746441 4982.425293 3205.557129 
3.343012 3.948157 3271.914307 5269.130859 
3.830016 3.898962 4335.626953 1911.861816 
3.971052 3.602579 6182.946289 4243.088867 
3.550915 3.420277 3680.129150 3873.087402 
3.681063 3.954164 3863.544678 7043.777344 
3.800109 3.806262 5604.006348 4063.173828 
3.954253 3.598170 6136.166016 2760.974365 
3.895416 3.725170 3623.813965 6000.124512 
3.619134 4.025525 3601.760986 4813.571289 
4.036649 3.724971 5191.381348 4154.082031 
3.733579 3.785075 4239.048340 5462.864258 
3.764575 3.841531 3815.444336 4222.874023 
3.649672 3.615116 3619.523438 3595.573242 
4.312990 3.760434 3462.645020 3039.668701 
4.065283 4.264833 3617.287109 6726.365234 
3.861356 3.678938 6632.894043 5489.029297 
3.940641 3.691571 4018.817627 3656.825928 
4.217606 3.773839 5812.101074 3597.017822 
3.182918 3.973730 2580.168457 6517.022949 
3.911310 3.481523 6426.836426 3644.537842 
3.873793 3.812751 3535.383545 3402.382080 
3.659431 3.492195 4401.065430 3620.368164 
3.946719 4.596210 5994.060059 8649.458008 
3.700831 3.706982 1920.547607 5145.882812 
4.171012 4.320404 3622.405518 6326.031250 
3.615262 3.476641 3968.700684 2835.554443 
3.168283 4.400435 2479.332520 6051.230469 
3.844872 3.713521 4403.153320 3983.884521 
3.621173 3.948952 4782.494141 4982.639160 
3.872939 4.370254 4352.479980 4299.726562 
3.484238 3.416676 3288.540771 4948.391113 
3.891443 4.355381 5572.617676 4908.381836 
3.410078 4.107388 3196.909180 5231.529297 
3.459728 3.569686 6380.473633 2468.525879 
3.504594 3.827296 4675.190918 4058.837646 
3.671884 3.793597 2469.660400 6237.711426 
3.977056 3.970960 4980.799316 7364.115234 
3.874741 3.538361 4098.241699 2320.213379 
4.339351 3.822411 6582.333008 4243.986816 
3.762860 3.856977 4570.660645 2971.628418 
3.963251 4.093872 2804.841309 3351.235352 
3.966011 3.826454 3562.331787 4028.540527 
3.881402 3.648875 4578.270996 3254.816406 
3.448136 4.010613 3116.608887 5257.988770 
3.833600 3.628618 5978.816406 3623.431396 
3.415901 3.680821 4292.313477 5540.673340 
3.146900 3.924477 2429.693115 8357.085938 
3.895352 3.683583 6110.330566 2581.487793 
3.942314 3.839508 4896.772461 5696.484375 
3.965918 3.738393 2964.525391 3904.744629 
4.390313 3.933068 5953.050781 4043.326904 
4.371427 4.067857 6265.785645 3679.851807 
4.215517 3.552964 6333.956543 4337.094727 
3.976493 3.703431 3905.294678 3377.017334 
3.331004 3.886543 4111.966797 5956.542480 
3.782333 3.693137 3731.538574 3662.837891 
3.514463 3.544560 3672.762451 4371.572266 
3.461351 4.668214 2447.299561 7873.361328 
3.478736 4.133057 3675.558838 6008.077148 
3.539638 3.771355 2428.713867 7445.085938 
4.018165 3.558440 6292.825195 2261.382324 
3.787436 3.560721 8526.732422 3267.490967 
3.309649 3.879708 1825.343628 5945.929688 
4.322732 3.540512 8634.333984 3261.422363 
4.125266 3.600934 5672.747559 3509.544434 
3.800154 3.809434 5010.985352 5922.372070 
3.778461 3.819391 4083.814941 4802.618652 
4.312252 3.974085 5059.208008 2402.528809 
4.016866 3.884089 5593.109863 3424.144531 
3.685308 3.777279 5053.973633 5378.726562 
3.887140 3.191406 5931.744141 2309.446777 
3.409160 4.532948 2187.067871 5732.520020 
3.557506 4.008365 3885.687988 5404.226562 
3.487694 3.698905 4515.645508 3502.703369 
3.778674 3.865828 3214.266113 5036.457520 
3.893931 3.624332 7599.983398 2535.295654 
3.606949 3.688805 3610.194580 5281.455566 
3.437854 3.842199 3272.944092 7108.175781 
4.247710 3.471116 8721.827148 2215.775879 
3.823745 3.838890 5844.860840 4442.207520 
3.468164 3.797366 4082.737305 2779.371582 
4.079725 3.525397 3705.925781 3108.270508 
3.881921 3.239500 5258.400391 2190.492188 
3.966743 3.810935 4298.223633 5909.584473 
3.845184 4.545315 3784.634277 11264.460938 
4.050406 3.905875 3414.732666 5768.167969 
3.561594 3.656938 3833.772461 6937.776855 
4.054594 3.364674 4070.138916 4627.761230 
4.724247 4.090311 10025.502930 6582.577148 
4.126971 3.478954 5652.093750 3467.480469 
3.732177 4.002130 7186.691406 4551.789062 
4.057516 4.303327 6948.473633 5782.077637 
3.833176 3.558208 5260.600098 3023.452393 
3.572768 3.912986 3194.301025 4228.793457 
4.140109 3.692722 5720.921875 4431.803223 
4.887576 3.819710 4719.985352 3784.816650 
3.845894 3.719511 6887.133301 2775.535889 
3.730813 4.033314 4337.813477 6358.455078 
4.035857 4.042779 5393.689453 5173.739746 
3.820755 3.550682 7894.604492 4368.376953 
3.908285 3.638987 4303.917480 3088.402100 
3.983101 3.413248 5296.807129 4639.137695 
3.573138 3.940013 2469.362061 8196.495117 
3.492223 4.433321 3205.221436 3833.372559 
3.870256 3.793712 3291.359619 4379.127441 
3.886852 3.933771 3935.932373 5267.629883 
3.680345 3.898109 2701.567139 5450.420410 
4.538408 3.640180 5376.503906 3087.945557 
3.264413 3.907204 2899.134277 4082.851807 
4.240058 3.827453 5527.946289 3731.296875 
3.697433 3.662535 3065.348633 3327.250000 
3.510377 3.732300 4436.206055 4357.807129 
4.103453 3.987345 8416.892578 3884.280273 
4.081252 3.946427 4410.940918 7891.984863 
3.909266 3.665701 3845.804199 3047.423096 
4.200082 3.495016 4642.264160 4324.076660 
3.655735 3.742673 4995.242188 3045.518311 
3.740289 4.054874 5337.938477 8284.585938 
3.973754 3.771339 4325.958984 4273.644043 
4.408031 4.256767 3764.612305 4384.097168 
3.990497 3.718231 6442.260742 5038.851074 
3.649462 3.271202 4441.337402 2188.325928 
4.114671 3.364240 4025.502686 2972.578369 
4.144154 3.279694 6008.135254 2909.976562 
3.526725 4.603164 1962.168823 8668.222656 
3.567657 3.865024 2602.783447 5763.601074 
3.932458 3.723140 3044.724365 5982.353027 
4.182269 4.041243 3944.589600 5061.651367 
3.935920 4.712898 3703.341553 6986.012207 
3.783864 3.845131 2840.553955 5127.169434 
4.042551 3.564818 4602.103516 4288.493652 
3.979445 3.462269 7425.691406 3379.405518 
3.589190 4.382502 3874.392822 4586.291992 
4.031103 3.918652 4066.105469 5016.527832 
3.805952 3.799019 3321.171875 3473.148193 
3.528585 4.176035 4761.409668 3786.520508 
4.152593 4.125446 4786.584473 6209.742188 
3.541017 3.860078 3665.646240 4901.805664 
3.507824 4.260218 3940.588379 4851.999023 
3.816697 4.369802 3342.170654 8775.761719 
4.058371 3.527606 8256.284180 2686.320801 
3.616750 4.161564 3430.272705 7159.747559 
4.400713 3.430140 10998.966797 2932.238037 
3.787476 3.678288 5145.518555 2862.280273 
3.656180 3.768953 4116.562988 4880.778320 
3.734618 3.708500 4993.949707 3214.100830 
3.672672 3.617361 4070.972656 4340.079102 
3.887127 4.061277 6104.018555 4869.880859 
3.805956 3.593694 3712.334229 5172.443359 
3.327021 3.948238 2582.979492 5178.468750 
3.432163 3.354996 4524.913574 5533.813965 
3.773737 3.663733 2999.712646 4249.144531 
4.503968 3.907840 4618.759766 5244.282227 
3.687205 3.605235 3365.864502 3482.776367 
4.086066 4.189843 5658.399414 2950.355469 
3.280694 3.629923 2512.646240 3862.615967 
4.123310 4.366990 6285.935547 2821.417236 
3.660449 3.665463 5764.677246 3804.309570 
3.739700 4.056981 4473.454102 3444.694092 
3.829385 4.185039 4623.886719 5427.807129 
3.842197 3.866166 4867.825195 3467.576660 
3.880859 3.928704 3668.429199 8278.727539 
3.486780 3.595461 5433.393066 3731.329590 
3.818545 3.775487 5481.196289 4948.953125 
3.463772 3.194173 4357.000488 1976.964722 
4.087221 4.005907 6596.810059 4451.005859 
4.030310 3.530643 4029.235840 5277.382812 
3.780145 4.655553 4914.403809 5691.031738 
3.809172 3.537633 3209.700439 4974.725098 
4.617458 3.484867 7071.076660 2773.005371 
4.291013 3.651919 6186.669434 3664.572266 
3.656284 3.544554 5796.553223 2465.369629 
4.190335 4.060724 3084.533691 6740.692871 
3.610544 3.527770 5460.127441 3104.395020 
4.057971 3.723385 5716.646484 4030.427734 
4.025362 4.042623 8750.560547 4906.666992 
3.792731 3.504688 3811.250244 3574.702881 
3.658059 3.797905 4191.271973 3112.546875 
3.738606 3.899910 3846.534668 4511.956055 
3.929719 4.091641 2774.437256 6858.645020 
4.525413 3.994998 8449.716797 2895.093262 
3.605390 3.908077 2555.953857 6024.538574 
3.476024 4.017689 2610.838623 7630.894043 
3.697636 3.784115 4305.861816 3997.864502 
3.682741 4.039452 4771.850586 4028.701416 
3.692384 3.518779 4127.891113 2428.576660 
4.321757 3.670438 5274.300293 4179.317383 
4.042621 4.139025 6751.864746 5627.037109 
4.121036 3.753528 4113.134766 4058.451172 
3.532349 3.954123 3787.749268 5195.737793 
4.337071 3.463210 4391.332520 4418.741699 
3.424394 3.647725 5183.500000 3283.693604 
4.544392 3.712617 6725.709473 4533.141602 
4.002980 3.697305 7422.258789 2990.598389 
4.539828 4.269818 7764.451660 7448.425293 
3.373026 4.034377 3081.023193 7905.770508 
4.033547 3.859489 5542.641602 6680.174805 
4.113869 4.567839 6653.620605 7676.736328 
3.844182 4.068816 4847.766113 4539.966309 
3.744587 3.913270 4137.507812 5498.188965 
3.657933 3.887509 3641.943359 4905.495117 
3.263973 4.226177 2165.384521 8298.310547 
4.073394 4.114916 5587.500488 4638.930664 
3.831460 3.649048 4200.962402 3400.241943 
4.344541 3.336313 4643.767578 2939.302734 
3.747386 3.734508 6311.872070 3880.344727 
3.699382 3.990299 3268.771729 6066.606934 
3.352494 3.973946 2719.424561 6255.902832 
3.647696 3.883700 4075.500977 4610.610352 
4.066968 3.526765 3606.268066 3691.504883 
4.253788 4.032722 10317.546875 4694.967285 
3.249000 4.355996 2786.972412 5589.253418 
3.832811 3.464483 4738.330566 3352.837402 
3.780754 3.683474 4723.764160 3318.162598 
3.658397 3.622351 3614.466797 4393.276855 
4.013907 3.716628 5233.322754 3696.740723 
3.597390 3.779869 3027.837891 5579.319824 
4.013726 3.598581 6632.898438 3931.021240 
3.816325 3.895451 4750.091797 3803.684814 
3.601413 3.541687 4526.199707 3571.802002 
3.573462 4.441697 2519.895020 7479.775391 
3.998045 4.054770 6363.075195 4209.636230 
3.813477 5.081187 3090.283691 7070.259277 
3.514250 3.358077 3980.521729 4997.172852 
3.729479 3.875761 6780.714844 6033.825195 
3.669078 4.318811 2585.790527 3485.200439 
3.506162 3.882349 3472.934326 2992.433105 
3.705654 3.996511 3930.947021 7216.984863 
3.984043 3.307667 7489.081543 3150.884521 
3.747393 3.292763 3962.084961 2785.853271 
3.573407 3.661650 3246.607910 4402.281250 
3.788344 3.645142 5498.744629 3976.682861 
3.461029 3.621247 3465.358398 4879.473633 
4.089826 3.365839 7970.388672 1960.801880 
3.937707 3.488020 3803.309082 3673.793701 
3.626565 3.772458 4201.521973 5396.056152 
4.041057 3.558918 3755.725830 3540.628906 
4.212816 4.058518 4905.343750 4510.955566 
3.917778 3.801295 4313.300293 3539.223145 
4.101462 3.509123 8591.577148 2966.148682 
4.127319 4.648129 4034.076172 5849.821289 
3.830036 3.570944 4856.481934 3957.761719 
3.876929 4.149942 3188.702393 3760.559326 
4.005759 3.550258 5586.069336 4696.347168 
4.403594 4.240160 4449.516602 5564.391113 
4.014204 4.242614 2660.470947 5809.341309 
4.208260 3.458991 6652.372070 2489.428955 
3.570284 3.356925 4096.104980 2612.591553 
3.746446 3.435683 6029.443359 2736.906738 
3.585492 4.106342 3737.556396 5400.118652 
3.565522 3.354426 3112.414551 3585.088135 
3.988606 4.173169 3729.251465 5682.607910 
3.928010 4.056656 2851.825195 5827.197266 
3.950928 3.849220 2586.438965 4533.778320 
3.662994 4.196233 3351.430664 5140.337402 
3.918411 3.957083 4883.096680 3420.389404 
3.846225 3.929868 4851.477051 4077.830078 
4.363376 3.539994 5695.522949 4589.063477 
3.910441 3.794776 4986.591797 3564.829590 
4.172987 4.000207 5522.479980 5191.294922 
3.636616 3.611129 3577.944092 3366.786377 
4.089700 3.374773 4157.835938 3115.694336 
3.506233 3.639183 3636.531982 5460.115234 
3.671628 3.917708 3001.353516 4650.616699 
3.945866 3.375531 5039.741699 2626.739014 
3.558158 3.584352 4236.066406 3379.974609 
3.569267 3.714341 5428.301270 3818.172363 
4.139616 3.461751 6408.458984 3199.675293 
3.738436 3.882173 4672.344238 3468.270996 
3.836954 3.616313 4218.281738 4157.879883 
3.587744 4.057758 4341.788086 4754.762207 
4.175000 3.774357 4222.481934 4292.417969 
3.516985 3.687414 2361.110596 4655.510254 
3.753306 3.760193 3787.844971 5006.096191 
4.120179 4.255092 2970.645508 5473.533203 
3.271845 3.895788 2445.511475 7693.225586 
3.477179 4.034847 2629.322510 4610.446289 
3.910149 3.425859 4768.108398 3499.217285 
3.755827 3.809563 4708.450684 4236.867188 
3.737356 3.531249 3817.458008 3051.038818 
5.001721 3.703067 3378.255371 3873.133545 
3.770692 3.955224 5497.282227 3357.600098 
3.713496 4.651649 5263.403320 2607.397217 
3.867069 3.692753 4796.520996 3918.657959 
3.707716 4.046985 4498.357910 3783.806152 
3.535341 3.478836 4598.627441 3109.693359 
4.337094 3.683202 9212.426758 2358.395996 
4.126430 3.476808 5803.845215 3667.626709 
3.564358 3.758401 2296.224609 3732.026367 
3.976619 3.515312 5036.514160 3723.734619 
3.753450 3.892340 4087.647705 4253.382812 
4.089183 4.039439 5194.227051 3705.770264 
3.554999 3.789852 4892.844727 4179.713867 
4.317790 3.250458 6065.739746 2557.012451 
3.592564 3.556731 3894.108154 4372.922852 
3.604227 3.777179 3979.647461 4226.729004 
3.217829 4.115561 2547.538818 9941.333008 
4.483508 3.575599 8744.819336 3809.975342 
3.531552 4.361429 4727.867676 4193.314453 
4.379502 4.131816 7679.933105 3807.588135 
4.403728 3.902845 7117.226562 3847.626221 
3.551028 3.851517 4886.195312 4885.972656 
4.140749 4.349266 3372.963623 5683.038086 
3.890173 3.563931 6058.365723 5842.963379 
3.693009 3.692920 3971.180908 4543.310547 
3.940805 4.045176 5196.798340 2740.923096 
4.105495 3.586135 6101.500000 4692.882812 
3.586931 4.315675 2722.538086 5673.106445 
3.654342 3.964230 4277.662598 4227.556152 
3.531114 3.780911 4466.297363 4494.807129 
3.794210 3.651843 3532.195312 3782.211670 
3.211811 3.592307 2856.339600 2908.310303 
4.191432 3.791398 7432.539062 3488.163818 
3.944792 3.980037 3699.633301 2997.085449 
3.629936 3.768822 4254.664062 4125.465332 
3.335925 4.035221 2508.076172 6459.213867 
4.400027 3.201526 6692.378418 2526.077881 
3.979650 3.417010 5103.274902 1640.320435 
3.867379 3.379295 6138.365723 4090.231689 
4.535854 4.324796 3159.844727 3785.562988 
4.188442 3.729664 6548.103516 3135.957275 
3.346359 3.471384 2457.077881 4401.881348 
3.731831 3.453872 2886.390625 4161.264160 
3.482790 3.772929 2672.233398 5621.340820 
3.796724 3.366784 4791.459473 3286.958496 
4.049875 4.088367 3086.900879 9876.638672 
3.863971 4.023791 7058.414551 4560.699707 
3.641257 3.610130 3193.751709 6117.205078 
3.949277 3.868548 4166.674316 5155.202148 
4.409026 3.676882 5818.678711 2629.649902 
3.667408 3.854034 5824.027344 3754.723145 
3.493331 3.777231 4242.501465 5097.749512 
3.617110 4.137917 2274.283691 5722.814941 
3.927924 3.200102 7276.999512 1739.846802 
4.459118 3.409310 6580.512695 3148.685791 
3.667486 3.682480 3828.544922 3409.189941 
3.602024 4.299855 1508.985596 7500.392090 
3.692520 3.797078 3654.306885 2501.196533 
3.937599 3.613223 3934.651123 4337.137695 
3.972701 3.653434 5033.961426 3010.535889 
3.942580 3.571383 6875.169922 4017.369873 
3.979468 3.549231 3906.432617 3463.308105 
3.386580 3.849905 3474.664062 5426.114746 
4.137480 3.814050 6474.116211 3600.180176 
3.720435 3.911528 5503.979004 2966.596680 
3.690687 3.898122 6078.648438 3840.014160 
3.619431 3.703693 4254.607910 3246.645752 
3.858999 3.706809 6801.821289 3498.086426 
3.904248 3.918838 5211.660156 5066.122559 
3.777141 4.044493 4610.745117 4490.459961 
4.233922 3.415179 5091.776367 3351.542236 
3.496725 3.996727 2631.499756 8276.750977 
3.824585 3.787703 4653.273438 4194.726562 
3.866893 3.677784 3481.472412 4146.024414 
4.338558 3.635544 5063.507324 3183.398193 
3.716250 3.928226 3876.277832 7613.054688 
3.918828 4.213617 4153.459473 7058.029297 
3.613726 3.387691 4620.558594 2978.000244 
4.128404 3.888028 3867.821289 5336.201660 
3.809275 3.833716 5509.392578 5962.996582 
3.855993 3.626322 5670.077637 4275.234375 
3.826029 3.533712 3450.592285 3329.741211 
3.866660 4.090622 5504.979492 4751.157715 
3.910669 3.788488 4564.193848 5640.481934 
3.802017 3.932347 4902.006348 4863.751953 
3.724805 3.927691 2242.053223 7457.743652 
3.745159 3.632482 5965.246094 4967.838379 
3.737665 4.079431 4184.186035 5891.839355 
4.115562 3.803482 5685.890137 4137.725098 
4.224606 4.058632 6031.922852 5443.069336 
3.618583 3.348044 4642.103027 4636.121094 
4.143187 3.454409 4910.903320 4349.510254 
3.814462 3.418615 3735.032959 2485.187744 
3.964618 3.544605 5091.833984 2566.332520 
4.003524 3.819675 4440.294922 3270.827881 
3.500313 3.871387 3031.586670 7767.097168 
3.637711 4.112543 2638.258057 5137.268066 
3.792424 3.674992 3912.107910 4511.213379 
3.414903 3.571603 3418.831299 3879.669434 
4.475925 3.627143 6010.897949 2855.034424 
3.952914 4.156948 3783.004883 3935.822998 
3.759986 3.512720 3116.504150 5239.009766 
3.676991 3.975281 3679.197754 4555.453613 
3.184770 4.188860 3050.842041 6795.759766 
3.479174 3.666786 4184.144043 3880.572754 
3.644982 4.561525 2827.107422 10233.180664 
3.988245 3.452969 5172.209961 3262.092773 
3.316139 3.849675 3119.715088 2690.943604 
3.435491 4.088376 1820.848511 10586.487305 
3.918625 3.551794 6614.292480 1461.989624 
3.911636 3.620390 3817.589844 5695.460449 
3.596261 3.939034 3071.790771 5718.858887 
3.621330 4.252041 3266.738770 5375.920410 
3.597362 3.684850 3264.123047 4669.744141 
3.877034 3.810125 4109.434082 2878.756836 
3.284901 3.624085 2960.615723 4234.207520 
3.675485 4.078635 3288.354004 5910.155273 
4.079542 4.109090 4569.931152 4237.623535 
3.688330 3.844435 4451.842773 6223.102051 
3.584610 4.080689 2288.948486 5568.133301 
3.473120 3.482392 3328.809082 3408.735352 
3.710078 4.376834 4079.517578 3780.974121 
3.359469 4.858839 2942.092773 6644.871094 
3.876581 4.083138 5375.098145 4409.555176 
3.896567 3.628451 4083.293701 3021.342529 
4.277235 4.564294 3746.093506 4056.758789 
3.837837 3.359103 6660.854492 2789.370605 
3.635489 3.867782 3146.501221 4630.493652 
3.836842 3.691616 5290.740723 2999.967041 
3.935074 3.216272 4223.248535 2849.216553 
3.919862 3.743079 4763.972168 5146.127930 
4.456189 3.887196 7820.100098 3052.156738 
3.677325 3.297586 4947.008301 2448.454346 
4.138792 3.684936 6410.246582 4051.104004 
3.405250 3.386994 3238.191406 3114.063232 
3.749087 3.460997 3877.796875 4033.206787 
4.666375 4.113331 8120.510742 3226.441650 
4.181309 3.638515 4265.591309 4031.904785 
3.869698 3.874572 4512.147949 3933.085205 
4.007404 3.525671 5076.192383 3340.620361 
3.465671 3.831831 3512.419434 4744.212402 
3.610358 3.676688 2582.218994 6673.277832 
4.360177 3.888759 6833.803223 3323.106689 
3.729511 4.052773 3612.582275 4832.130371 
3.625006 3.752325 4756.466797 3243.816650 
3.739033 4.239293 4477.390625 6142.570312 
3.664043 3.497448 5118.337402 2709.001709 
3.598871 4.268161 3182.758789 4193.223633 
3.768368 4.042216 5010.890625 4889.156250 
3.631355 3.955803 4278.394531 3179.804688 
3.524025 3.747770 5478.828125 4085.531006 
3.585084 3.502237 3634.039307 2797.041504 
3.390812 4.502989 2440.460449 6965.945312 
3.739720 3.956748 4991.952637 6514.200684 
3.668756 3.734998 5024.349121 5129.541992 
3.706570 3.773203 4681.406738 3266.410400 
3.840915 3.461074 5837.363281 3431.071289 
3.533182 3.873472 4465.819824 2575.870117 
3.422982 3.424824 4042.767578 3698.729980 
3.642028 3.474340 4894.147949 3206.098633 
3.448666 3.988092 3403.799805 7654.378418 
3.661653 3.999900 3660.209473 4331.913574 
4.053983 3.837224 5601.283691 5952.084961 
3.603508 3.667644 3106.850830 3479.375732 
3.681691 3.775981 4901.592285 5252.263184 
3.774066 3.401438 4853.811523 1903.690063 
3.642420 3.817520 4561.788086 2813.028809 
4.389317 3.281730 4077.573730 2952.865967 
3.749533 3.813141 4365.229004 4203.211914 
3.791328 3.403855 6591.562012 2637.730957 
3.832597 3.557435 5346.297852 3081.321533 
3.535063 4.006928 2183.014648 6062.171875 
3.302613 4.265567 2029.949707 6703.495117 
4.841916 3.373750 6226.604980 2516.358643 
4.600358 3.520757 5847.205566 3606.290283 
3.470749 3.969127 2648.815186 5976.988770 
3.686104 3.962019 4045.215088 4162.124512 
3.788591 3.685203 4415.877930 7084.852051 
3.708176 3.571686 4409.224609 5468.504395 
3.670782 3.766300 3934.687988 4572.959473 
3.531707 5.165117 3059.902588 6338.585938 
3.532472 3.583823 2871.576416 2889.386963 
3.754340 3.497712 4927.555176 3831.623291 
3.661931 4.257780 3749.432617 3853.926270 
3.699473 3.601485 5457.182129 4313.766113 
3.694715 3.781685 1956.982544 5049.333008 
3.824520 4.494837 1892.038818 5574.570801 
3.613986 3.602281 3519.787842 3887.621094 
4.003325 3.540963 3803.082275 4007.678711 
4.049372 5.189438 3831.476807 8938.362305 
3.845258 3.824517 3803.031738 7108.302246 
3.581503 4.875252 2874.110840 8696.098633 
4.098228 3.912291 4309.332031 3046.141846 
3.397743 4.283746 3063.199463 4666.981445 
4.414885 4.322992 4731.823242 6237.770996 
3.743881 3.614815 5140.455566 3631.949707 
4.016611 4.334061 7007.971680 4134.605469 
3.874688 4.144621 3351.075928 6032.926270 
3.600334 3.695273 3996.765869 4991.760254 
3.773630 3.412614 6440.946777 2785.350342 
3.935329 3.622037 5878.343750 6290.235352 
4.566894 3.712954 7277.605957 4073.673584 
3.950916 3.862464 4361.353516 7658.669922 
4.050376 3.424010 5716.781738 3887.106201 
3.961582 3.947036 4289.748535 3727.404541 
4.684045 3.795118 7492.647461 3375.813232 
4.380346 3.832171 6252.518066 2559.683838 
3.889325 3.921036 7603.110352 5174.968262 
4.158574 3.689318 5662.835938 3887.210693 
4.056571 3.701646 4311.840820 4255.516113 
3.859296 3.596670 4825.674316 2823.131836 
3.632572 3.634799 4473.536621 2697.547363 
3.850316 3.701669 4899.717773 2456.714111 
3.651832 3.315309 4147.760742 3900.179443 
3.727243 3.819914 4671.688965 6002.463379 
3.641832 4.039764 3197.951416 5896.236328 
4.039611 3.988690 7322.457031 2681.563477 
3.903263 3.743236 3259.674805 4064.205811 
3.548257 3.607009 3254.809570 3518.501709 
4.243403 4.207031 3894.134277 5549.261230 
3.906059 4.495226 4743.764160 3892.781982 
4.187657 3.802501 5969.669922 3231.866455 
3.936071 3.852726 2829.916504 6064.194336 
3.399188 3.789617 2867.020996 5005.049805 
3.714818 3.965017 4302.188477 5902.326660 
4.041010 3.825406 6377.092773 5163.101074 
4.402341 3.530510 5664.664062 2792.563232 
3.726436 5.222406 2987.768799 5355.705566 
3.575958 3.788753 4344.414551 3272.364014 
3.720909 3.453660 6089.250000 3045.392090 
3.938258 3.863428 3747.698242 5536.457520 
3.606235 3.557654 2811.427002 3639.066406 
3.973852 3.926516 6546.200195 3317.094727 
3.770103 3.790618 4273.849121 4765.648438 
4.094375 3.886443 3600.218262 3624.614502 
3.908535 3.641634 4722.595703 5102.055176 
3.941880 3.767368 6395.794434 3701.803711 
3.428331 3.867314 4316.383301 6283.539062 
4.526343 3.945772 3930.391602 3036.825195 
4.065484 4.042451 5065.196289 5042.065918 
4.066499 3.441595 6922.571289 3809.824707 
3.931798 3.837393 4821.638672 7205.199219 
3.760212 4.399189 2643.630371 9324.238281 
3.608819 3.639973 4248.814453 4082.602539 
3.579385 4.243199 3081.928711 4392.966797 
4.272703 3.389693 7357.453125 2553.541992 
4.083198 3.579004 5702.034668 3833.687500 
3.944187 3.862970 3012.257080 4875.338867 
4.036606 3.641443 6119.104004 2173.912109 
3.355576 4.109830 2779.207764 5656.095703 
3.728673 3.996088 4550.060059 3805.210693 
4.705642 3.795084 8127.957031 3525.537354 
4.272729 3.683324 4605.072266 4808.947266 
4.049788 3.516053 5759.833496 3496.035889 
4.637574 3.174928 6210.016602 1568.140259 
3.654969 3.763819 3241.004150 7677.584961 
3.780454 3.432156 4986.324219 3733.823486 
3.505264 3.639858 5031.291504 4542.419922 
4.013181 3.691509 5280.393066 3793.488037 
4.266302 3.364254 7151.505859 2744.177246 
4.071462 3.958145 6656.685059 5024.835938 
3.686125 3.377870 7592.628906 2109.333252 
3.764431 3.613724 3831.687256 4644.660645 
3.912858 3.833345 5499.951660 2992.375244 
3.951915 3.896986 4670.348633 2519.384033 
3.620291 3.976492 6510.573242 4447.546387 
3.587937 3.933293 4923.811523 4744.576660 
3.696034 4.003398 4350.524414 4604.633789 
3.376166 3.705908 2672.505859 5925.636230 
3.769467 3.767844 4700.039551 4713.786133 
3.325851 3.897221 2182.689697 4210.832031 
3.976371 3.470197 3924.087402 4159.853027 
3.608451 3.646039 4531.523926 4559.718262 
3.778138 4.345090 3993.579346 5915.473145 
3.896135 4.267636 3873.161621 6731.895996 
3.716796 4.409362 2834.439941 7708.383789 
4.225958 3.799140 6301.886719 5043.854980 
4.030433 3.826335 6572.750488 5389.122070 
4.007948 3.603938 4994.183105 2323.002686 
3.756457 4.116053 2221.432129 7604.960938 
4.129086 3.859813 4215.609375 4998.030273 
3.828186 3.520497 5118.460938 2784.524658 
3.829413 3.533193 4387.764648 2492.403076 
4.103375 3.726476 4658.822266 3661.890381 
3.543458 3.494253 3288.154785 5378.243164 
3.271068 4.095680 3283.989746 4200.672852 
3.652761 3.497756 3171.239258 4225.024902 
3.695653 3.575733 4475.818359 4382.416504 
3.407228 4.156923 1961.085083 8677.831055 
3.572335 4.001246 2710.819092 5025.484375 
4.611713 3.625082 9795.873047 4160.301270 
4.157770 4.201097 3879.988770 4542.031738 
3.873456 3.937073 2355.937500 3860.676025 
3.859159 3.643885 4972.219727 4445.474121 
3.939728 3.673354 3497.165039 4268.546875 
3.844200 3.864505 4096.779297 7122.069824 
3.630747 3.798573 4323.239746 3646.439209 
3.394574 3.556258 5099.713379 2733.101318 
3.184752 4.491115 3310.687988 8843.308594 
3.922626 4.487420 3602.941406 8338.423828 
4.379643 3.505504 7243.683105 3198.844482 
3.886258 4.129881 3932.052979 5514.828125 
3.866421 3.651177 4980.397461 3469.242432 
4.062877 4.088587 4970.652344 4838.630371 
4.178321 4.108699 6332.579590 5052.997070 
3.652370 3.793025 4622.588867 2911.827881 
3.429052 4.155067 2630.339355 8146.964355 
4.098862 3.443756 4697.375977 3116.457520 
3.840460 4.538248 4331.252441 3050.237305 
4.305354 3.460128 5537.045410 3564.119141 
3.422540 3.644741 3179.627441 4370.481445 
3.798529 3.958240 5226.107422 4735.735352 
3.786062 3.511459 2817.272949 4747.140625 
3.755247 4.041711 3682.848877 5251.684082 
3.749586 3.855974 5916.141602 4814.609863 
4.164350 3.523427 4438.896484 3663.448486 
3.429445 4.026029 5116.074707 7417.165039 
3.465447 4.014876 3465.259277 5817.007812 
3.444742 3.321978 3197.533936 3102.176025 
3.272643 3.639495 3240.123779 3363.642334 
3.878682 3.776124 4095.459717 3817.116211 
3.294441 3.958650 2940.642822 6287.876465 
3.543330 3.543314 3533.420898 5506.698730 
4.594516 4.131772 5666.934082 3176.543945 
3.323064 4.022896 2992.443848 4430.512207 
3.887787 4.049497 3388.132324 9161.655273 
3.686766 3.885157 4016.179199 4293.588379 
4.546475 3.868593 4127.147949 3801.047607 
4.088303 3.743821 4267.375000 5107.731445 
3.836581 3.685086 5815.873047 3479.460693 
4.018483 4.195024 5553.060059 4351.780762 
3.941381 3.654969 6028.624023 2943.700928 
3.632238 3.879709 2947.377686 6803.531738 
3.757518 4.026925 3759.857910 3896.459473 
3.951050 3.868927 3903.847168 5393.343262 
3.948126 3.868876 5078.128906 2701.751953 
3.619149 3.607928 2242.218506 5293.754883 
3.882378 4.175934 3061.123535 6412.734375 
4.632470 3.968036 5670.343262 4908.903809 
3.212195 3.662813 3361.761230 4333.854980 
4.300535 3.615651 5302.764160 2385.367920 
4.029158 3.862208 2812.931152 5016.654297 
3.789045 3.854526 3730.164551 4827.407227 
3.782078 3.828661 4694.393066 2352.126221 
3.541124 3.641210 3263.410889 5491.252930 
4.035557 3.607829 3295.317871 2706.143555 
3.299744 4.132937 1864.401489 5150.057129 
3.699677 4.252587 3635.367188 4869.680664 
4.146384 3.738283 5548.114746 4482.232910 
4.316419 4.029897 4742.921875 5344.996582 
3.665955 3.750880 3139.506104 4971.953613 
4.109443 3.939962 4965.327637 3901.342041 
4.014452 3.726564 4687.323242 3292.966553 
3.564884 4.577234 4045.727051 6576.507324 
4.109686 3.885552 5586.703125 4338.438965 
4.190989 3.299717 4964.751465 2895.609375 
3.848825 4.487785 4189.888672 5586.322266 
4.036891 3.856805 4661.983887 3497.049072 
3.638251 3.530806 3534.479004 5488.618652 
3.380870 3.313416 4886.026367 2154.739258 
4.589160 4.134148 4190.664062 5162.345703 
4.010611 3.997301 2815.989258 4378.092285 
3.538680 3.688845 1905.906738 6475.381836 
4.028397 3.905197 4304.175781 5461.870117 
3.813352 4.022876 2256.941162 6176.464844 
4.440017 3.703048 2250.760986 4265.814941 
3.804616 4.100347 2943.046143 6740.022461 
4.004671 3.525361 4600.547852 2892.625732 
4.151455 3.608953 5394.691406 3090.444580 
3.668530 3.787834 3486.068115 3994.333740 
3.751277 3.862493 3662.441406 5244.339355 
3.661028 3.818424 4577.013672 3967.416016 
3.807626 3.959444 5190.964355 5965.976074 
3.496814 3.731647 4990.075684 3442.989746 
3.982386 3.841784 5092.869141 3823.335938 
3.634681 4.063480 4320.230957 5466.389648 
4.070338 3.811216 5479.238770 2861.586426 
3.510288 3.513438 2909.762695 3016.536621 
4.185067 3.890495 5070.688477 2623.833740 
3.893700 4.053900 3008.751953 6325.719727 
3.784824 3.839720 4563.294434 2176.929688 
3.814650 3.316911 2487.493896 2553.407471 
4.277869 3.759545 7949.137207 5632.736328 
4.007233 3.839706 6197.061035 3560.815430 
4.022839 3.625102 5720.444336 3865.045654 
3.433659 4.188894 2822.880371 4016.111084 
3.740593 4.010925 4573.210938 4172.463867 
3.903844 3.590071 4867.199707 3729.591309 
3.870547 3.324697 7091.342773 4236.540039 
3.589667 4.042397 3300.708252 3980.861572 
3.342825 3.744843 3209.539307 6590.414062 
3.433564 3.792101 2723.879883 7563.924316 
3.794540 3.795248 7555.151367 4499.480469 
3.604608 3.653744 4631.619141 3671.856201 
4.207603 3.371624 7051.828613 2463.439941 
4.040721 4.043977 4056.413330 7166.059570 
4.014483 3.793481 2646.060791 3214.693848 
3.581556 3.806200 4023.291016 4028.365234 
3.896672 3.574934 3201.962402 4110.894531 
4.237388 3.475978 4200.278809 4312.644531 
3.911495 3.948934 2554.251709 3361.681641 
3.833835 3.560384 4578.718750 2332.364258 
3.703568 3.781876 5166.897949 6072.312012 
3.599926 4.337515 3700.709229 7343.957031 
4.041162 3.742573 3360.479980 2736.766846 
3.785639 3.945642 2305.192139 4877.555176 
3.711782 3.868950 3465.395020 5835.468262 
4.279007 4.294655 5999.496094 9405.340820 
4.470594 3.793577 10174.505859 5506.459961 
4.290376 3.417684 6212.231934 1797.938110 
3.715365 3.635173 4963.505859 3308.884766 
3.522603 3.492050 4543.674316 2604.178223 
3.714007 3.867130 3322.533203 5067.895996 
3.427898 4.416453 3813.622803 8345.259766 
3.259094 3.799268 3209.430420 6515.055176 
4.065395 4.012312 5816.634766 4612.102051 
3.973310 3.807767 5944.684082 3631.436768 
3.678941 3.527783 3610.474854 3724.714111 
3.858745 3.489977 4379.019043 4793.989258 
3.638527 3.759358 3021.608887 3975.755371 
3.655226 4.027373 3843.106934 6454.670410 
4.318525 3.838372 6910.160645 3270.687256 
3.574389 3.780777 3631.047363 4268.639648 
4.033204 3.868892 4436.922363 4571.799805 
3.474910 4.157654 3690.514648 5547.995605 
3.679894 3.756023 2688.296631 4490.221191 
3.841607 3.872741 5255.347656 3938.750488 
3.262749 4.245906 2749.179199 5497.868652 
3.718361 4.046410 4085.504150 4708.170410 
3.797719 4.054189 3515.775879 4643.301270 
4.061315 3.628309 5223.343750 4563.186523 
3.910864 3.911752 4932.310059 3672.071045 
3.802536 3.568858 4831.692383 3978.585693 
3.356700 3.903702 3998.414307 4815.355469 
3.704042 4.033376 6574.013672 4785.186523 
3.352175 4.035920 2133.604004 6145.215332 
3.971786 3.887181 2914.156250 5468.523438 
3.836293 4.437419 3924.722900 7373.422363 
3.482333 4.304894 1600.375610 5739.527832 
3.386804 3.566830 3440.633545 3319.526123 
4.206154 3.524843 6049.704590 2112.566650 
4.146569 4.105916 5608.031738 2904.413086 
4.318871 3.651845 5670.319336 3800.036377 
