2.338649 2.552226 2249.863037 3315.062744 
1.409509 2.523525 939.156128 5194.345215 
2.310707 2.302778 2663.434814 2673.474121 
1.417808 2.935499 803.111450 4731.809082 
2.231200 2.840449 3542.231201 3845.315674 
2.219690 2.831564 3696.112061 4270.982910 
1.324531 2.568682 1216.484131 2485.396484 
1.773473 2.532787 2282.125488 3348.915283 
1.858586 2.522361 2192.132812 2099.975342 
1.634397 1.635838 1340.302246 1433.764038 
1.671025 2.448464 1620.429810 3872.596436 
1.275034 1.365527 968.949829 951.818665 
1.964790 2.643380 2153.464355 3387.277100 
1.376220 1.501237 945.642395 1018.932007 
2.758801 1.835973 5320.485352 1570.419556 
3.048120 1.918910 5531.510742 1705.537476 
2.532793 1.680685 2956.037109 1590.422607 
1.535639 2.569804 1069.048340 3362.636475 
2.095031 1.986730 3706.320801 1983.036621 
2.186342 1.621309 1849.757202 1125.002319 
2.882065 1.677336 4880.392578 1130.721558 
1.908786 2.845506 1654.920654 2942.841553 
1.772565 2.052841 1555.670532 1610.986328 
1.342415 2.820936 792.593567 3004.796143 
1.473482 2.207589 1149.136841 3481.463135 
1.128542 2.439335 564.187012 5115.516113 
1.928469 4.277168 2675.958252 12767.605469 
2.445896 1.803669 4643.705078 1582.853516 
1.844573 2.538813 1784.073486 3863.845703 
2.036606 1.920639 1813.813965 2008.055786 
2.444841 2.792742 3422.871094 4862.038086 
1.949577 2.074628 2069.012451 2273.670898 
1.673402 1.693909 1528.531250 1709.903198 
1.632210 1.792033 1796.850952 1662.935425 
2.164333 2.016447 3021.367676 1222.038818 
2.530138 2.820358 3327.061523 3329.989258 
1.766492 2.026814 1291.562500 2225.426270 
1.324946 2.270344 767.696594 1790.555786 
1.562444 2.987176 636.146790 4971.475586 
2.086375 1.235473 2328.752930 569.421997 
1.969379 1.306736 3329.950928 572.307312 
2.120403 1.933427 2429.661377 1322.485107 
2.350865 2.224987 4489.910156 1793.292236 
1.832533 1.295913 3004.353027 514.988647 
2.688424 1.580498 4384.253906 1078.406982 
1.555676 2.344810 973.032410 3139.777832 
1.693021 1.792440 1700.677490 1189.534668 
2.004911 1.744024 2258.767334 519.172058 
1.822882 1.566136 2302.510986 765.070496 
2.597982 1.523374 6690.020020 982.920776 
1.624769 3.345642 863.162537 7464.900391 
1.591710 2.506871 1096.169067 3977.376953 
1.329277 2.450002 740.536865 3337.645264 
1.622388 1.939490 1374.200195 2277.273682 
1.562266 1.674397 963.297058 1991.830444 
2.088583 1.773347 2398.239014 1535.359619 
1.858082 1.738268 1462.840088 1164.408325 
2.228525 1.759454 3360.212402 1237.753540 
2.274727 2.098789 4376.329102 1404.531738 
2.071481 2.393911 1934.248901 3541.589600 
1.558691 2.973529 865.832642 5186.826660 
1.296635 2.710040 901.851318 6553.826660 
2.255377 2.043802 2950.909912 3029.591064 
2.081154 1.550597 2707.984863 883.144775 
1.989952 1.712916 2529.843262 1684.781738 
2.101489 1.919817 2445.698486 1317.664551 
1.834426 2.579412 1166.414185 3651.389648 
1.599861 1.634926 1294.042480 1211.390991 
1.879262 2.059623 3258.603271 1829.290771 
1.833314 1.554308 2414.750732 1229.887939 
1.950552 2.177192 2132.516602 2525.111572 
1.477826 2.144839 1204.407715 1757.499634 
1.639517 2.097945 1213.419678 2872.022705 
2.037513 1.894727 2654.052002 1431.544189 
1.816058 2.910903 1491.208008 4687.721191 
1.876105 3.200206 2316.866943 4950.196777 
1.833272 1.940612 1150.535889 2280.605957 
2.084815 2.332067 2172.598389 2494.153320 
2.037595 2.314958 3167.974121 3002.004150 
2.835352 1.715920 4674.911621 1327.571167 
1.716550 2.028628 1079.928101 2961.534180 
1.854406 2.056070 1399.669678 1957.366333 
1.685483 2.005366 1322.197754 2382.664307 
1.273999 2.528305 747.292358 3480.884277 
2.047381 1.812947 2286.872314 1173.343140 
1.353914 2.703129 563.047180 5679.079590 
1.535136 2.816701 1488.216919 8124.832031 
3.087220 1.900329 6805.251953 2415.364258 
1.216364 3.425120 449.778107 8713.833984 
2.021739 1.671924 3770.726318 1200.955322 
1.872050 2.607162 1080.588135 3407.252930 
1.305718 2.170539 818.866882 3429.261719 
2.121192 1.817627 3356.737793 1542.738281 
1.949870 2.295982 2382.092529 2849.680420 
2.003930 2.424216 1907.732544 2064.544678 
1.599424 2.681637 899.975220 4525.272949 
1.732001 2.736019 1350.320312 3438.704590 
1.676374 1.816324 1512.486328 1597.295166 
1.731510 2.065496 1144.949829 1146.046387 
1.791249 2.180530 1986.389282 1810.855957 
2.638331 1.330540 4187.217773 944.129639 
1.934323 2.090264 2670.618164 1975.082397 
1.101580 3.002817 356.237274 4276.115723 
1.701233 2.805928 1399.008423 5285.327637 
1.566907 1.927628 1061.191406 1948.105347 
3.229796 1.926580 8816.899414 1802.695801 
1.611731 2.136009 1159.712036 2409.104980 
2.383359 2.198211 5206.725098 1713.394531 
1.620140 1.926191 1871.485352 911.419006 
1.870611 2.581801 1895.819946 2068.176514 
1.319332 2.168367 846.305542 2502.127930 
2.405136 1.801433 4234.272461 1490.025024 
1.703451 2.009098 1041.770264 2413.185059 
1.410013 2.304780 758.555542 4296.508301 
1.364854 2.529665 627.598145 3100.354736 
2.280050 2.087564 3167.780029 2372.416260 
1.404686 2.470979 1134.507324 3198.488770 
1.822057 2.023169 1536.124390 2570.523926 
1.394804 3.767881 675.902649 8432.809570 
2.319890 2.099220 2453.597900 1923.247192 
1.764718 2.330083 1474.111450 2410.791748 
1.730967 1.631442 1304.494873 1096.217285 
2.262046 2.239933 3868.532959 1695.164307 
2.022753 1.352780 2885.193359 822.009094 
1.951785 3.136314 3694.419434 4281.800293 
1.835510 1.750008 3095.897949 1516.148193 
2.364825 1.650525 2945.616211 1551.772339 
2.702736 2.537221 5047.772461 2892.229004 
1.527575 2.411491 691.838440 4167.854980 
1.808540 2.105218 3000.301514 1247.458496 
1.655849 2.792209 1242.751709 3589.168945 
1.876231 2.308081 1811.203003 3376.147705 
1.445963 2.005906 1020.927063 2015.484375 
1.405459 3.130424 988.681519 4836.105957 
2.098978 1.430414 2554.890869 938.101013 
2.108656 1.767911 1908.107544 2226.988037 
2.143563 2.484725 1733.121704 2710.374512 
1.140099 2.406505 667.317810 3382.649170 
1.426271 1.708211 1403.690430 1054.471924 
1.024763 2.639613 486.377563 3440.081055 
1.509163 2.130232 1309.446777 2856.714111 
1.660974 2.485318 1314.647339 3384.438232 
2.028874 1.769195 1975.037109 1420.177124 
2.089922 2.214761 3355.931885 2899.332031 
2.179713 1.884722 2776.083740 1259.796387 
1.935259 1.907475 2326.187012 1964.165039 
1.370190 2.257304 664.253235 3654.305908 
1.200059 2.241501 523.180420 3453.938477 
1.543455 2.304624 1919.850586 1477.081665 
2.080386 2.302147 2759.328857 2762.946045 
2.215884 1.399193 3362.867188 774.010681 
1.544958 2.118571 1031.750732 2437.265381 
2.192194 1.881672 4295.160645 1373.800903 
1.876669 1.512452 1729.047485 984.379761 
2.162153 2.346019 2590.442139 2085.556885 
1.732952 1.996105 2769.560059 1875.351685 
2.752737 1.930047 5631.660156 1369.741821 
1.858617 2.404919 1234.718994 3608.540527 
1.915226 2.441328 1382.362915 3108.916992 
1.284645 1.310360 941.124023 538.405334 
1.411693 2.471259 531.531311 3480.948486 
1.908007 2.761108 2421.235107 5473.481934 
2.637712 2.503949 2047.848999 4457.222168 
1.578879 2.250014 1589.680176 2422.333740 
1.846924 1.835656 1959.798096 1474.615356 
1.734594 1.822640 1593.100342 1850.679932 
1.564519 1.652469 1360.358032 1206.825439 
1.503929 2.056723 1269.796509 1653.280640 
2.264308 1.655366 2949.677246 2008.527832 
1.819352 2.258689 2793.657227 2943.161377 
1.712898 2.764547 807.927551 4593.503906 
1.840473 1.405354 2103.235352 894.045288 
1.779376 2.713376 1715.716553 2195.463867 
1.813478 2.366442 1432.945068 3108.042969 
2.412941 2.067005 2829.177246 1602.744629 
2.492530 1.753604 3481.147461 1532.140747 
1.575977 2.662389 857.611206 3307.382568 
1.991853 1.719959 2130.937744 1003.923218 
1.349078 2.610135 649.836792 4256.489258 
1.833108 2.301510 2147.979492 1716.682861 
1.984558 2.688386 2979.495117 3765.937988 
2.144425 2.656887 3012.745605 4460.248535 
1.751498 1.841004 1857.782104 1385.657959 
1.413796 1.534992 983.935913 1037.699585 
1.789817 1.793664 1997.517578 1289.953247 
1.762200 1.596683 2730.491699 976.429260 
1.937064 1.408859 2240.904785 895.865173 
2.261681 1.530744 3853.942871 1707.983887 
1.993243 1.344816 2607.312744 1064.203247 
1.806923 2.152389 1790.537476 2651.598877 
2.123818 2.212649 3854.097412 2215.899170 
1.490449 2.190216 913.969543 3081.683105 
1.907422 1.680687 2786.838379 1261.051636 
2.874559 2.657755 3481.827881 4055.634521 
1.282415 2.692722 755.753296 3869.906738 
2.396319 2.048795 3988.609619 1830.889526 
1.916129 2.784676 1499.746582 4782.337891 
2.197212 2.132592 2736.079590 2687.198486 
1.920077 2.169259 2833.494629 1985.182617 
1.689257 2.379977 1465.837646 2481.708740 
1.754441 2.198981 1845.753540 2051.929688 
2.620164 2.144549 3695.109131 1905.560913 
1.723044 1.755611 1401.818848 2040.436768 
1.432400 2.663756 916.426392 4533.601562 
1.065480 2.278598 418.180695 2929.608154 
2.323055 2.080222 2794.757812 1378.462524 
1.826091 1.749761 2334.274658 779.824341 
2.544912 1.518637 5810.701660 1138.690186 
1.130160 2.125375 528.123962 2510.586914 
1.901502 2.318128 2334.795410 3044.551025 
1.532295 1.727190 930.842468 1458.192139 
2.280703 2.261284 3896.337158 2767.125732 
1.527473 2.826049 1472.234131 3574.828369 
1.688210 1.965110 1045.441895 2533.158691 
1.578298 2.595771 1099.479370 2315.255859 
1.730628 2.309320 2432.278076 2032.588623 
3.009609 2.370019 4221.107422 2928.138428 
1.738674 2.380782 1462.224609 2890.601318 
1.823271 2.473962 2117.571533 3257.066406 
1.959094 1.686949 2494.173584 934.923279 
2.207310 2.197260 1941.862305 1775.935913 
2.353714 1.752093 2844.775635 1113.037109 
2.110944 1.835502 2407.739502 1538.427246 
1.935467 1.638963 3167.136230 1142.417603 
1.663393 2.179858 871.608154 2013.230469 
1.394489 1.727258 1541.656982 1281.385986 
1.166342 2.532662 612.934326 4714.815430 
1.062936 2.900214 434.415680 4441.235840 
2.022608 1.940543 2088.242432 2190.422119 
2.174134 2.169298 1928.447754 2448.809814 
1.362690 2.414497 1060.087891 2535.093994 
1.608743 1.664999 1576.950439 1986.313599 
2.097444 2.003497 3006.050781 1231.279541 
2.572620 1.929828 3177.794922 1948.507446 
2.692549 2.057504 4373.741211 1379.332886 
1.639665 2.148113 943.454895 3006.808594 
1.863843 2.484200 1871.288696 1835.423950 
1.891748 1.935480 1799.771606 1914.567993 
1.220440 2.400862 442.312286 2896.417236 
1.993647 1.667564 2424.491211 580.315674 
2.008012 2.523855 1978.663086 2739.957764 
2.115912 1.775795 2226.007080 1895.168823 
2.293581 1.975812 2317.995605 1893.598022 
2.886322 1.709518 5728.366699 970.623169 
2.519248 1.948089 4767.232422 1746.852051 
0.732804 2.831841 166.981720 3444.418457 
1.417967 3.483825 693.999329 7023.774902 
1.897450 2.463784 2313.528320 2924.973877 
1.305553 3.147591 624.919128 4819.328613 
1.846342 1.743077 2822.240234 1109.640747 
1.542081 2.093311 1082.143433 1712.583374 
3.284322 1.103682 5940.429688 155.394226 
1.630777 2.339443 801.772034 2692.748779 
2.832562 2.257593 6677.243652 1559.721436 
1.569959 2.069255 1581.726196 1618.371948 
2.606730 2.782583 4778.730957 2771.419189 
1.876792 2.755777 1023.497131 5073.197754 
1.359586 3.637013 1267.522461 7052.989258 
1.891074 3.445529 1487.536133 9855.277344 
1.578151 2.484724 1306.788940 3015.824463 
1.791996 1.626284 1802.122925 1267.739502 
2.025368 2.402319 2309.268066 2978.437012 
2.919756 1.612704 8407.675781 1005.478516 
1.787399 2.593717 1584.176392 3041.769531 
2.450465 1.126737 5630.453125 347.625549 
1.359373 2.802209 746.460144 4315.005859 
1.994699 2.367131 1376.187744 2933.896973 
1.649182 2.224769 1782.012695 2648.519775 
2.244167 2.318799 2828.235107 3344.246582 
1.535835 2.687079 1585.439819 3536.469482 
1.656797 2.082141 1177.474609 1486.704224 
1.925515 2.031529 1631.080688 1548.940063 
2.123315 2.847733 2550.508301 4511.505859 
1.501240 3.397747 919.147156 7981.125977 
1.542863 2.478868 1381.310303 2255.623535 
1.688749 2.070466 1025.717896 1564.737549 
1.724645 1.814041 1467.997681 1270.790161 
2.093592 2.154716 3682.283203 1058.722900 
1.582547 1.994843 991.089111 2380.534180 
1.724551 5.009865 2069.558594 18445.308594 
1.225006 2.028874 887.922729 1589.805176 
1.960572 2.030454 1757.857544 1876.579468 
2.118933 1.337991 2591.346191 525.133972 
2.261302 2.076617 1711.199585 1980.315796 
1.541837 1.931254 1286.002197 2475.395020 
2.039836 2.713147 1842.416748 1835.074829 
1.726710 2.009765 1917.678223 1324.484375 
1.038050 2.362578 307.934448 3838.588867 
1.771682 2.581319 2015.015137 3889.875488 
1.459617 1.825063 1422.502808 1224.370483 
1.483455 2.063112 710.075928 2791.874756 
3.194520 1.299241 4514.435059 926.114868 
1.532664 1.881582 1708.525879 2270.622803 
1.677448 1.986246 1251.715088 2271.109131 
1.818608 1.800108 1634.295166 1084.396973 
2.195016 2.016475 3069.431152 2090.123535 
1.447742 3.317383 741.066101 7047.448242 
2.157933 2.260134 1735.832642 2847.307129 
1.579011 1.702923 1590.435547 1437.614136 
2.842758 1.117003 5744.543945 501.134644 
1.912527 1.812150 2041.716187 1413.112793 
1.938311 2.214050 2219.499756 3948.635742 
1.230394 3.143675 707.445007 7191.398926 
2.100492 1.573931 1836.865845 977.673096 
2.227666 2.082736 3384.426270 1494.615723 
1.887596 2.195633 2038.710938 1726.250732 
1.839174 2.360015 1236.832520 2200.607910 
1.367789 2.325446 1015.079712 3628.208984 
1.660039 1.991098 1075.631592 2504.611816 
1.604198 1.508776 1506.440674 951.153564 
1.158242 3.135600 666.533020 4869.597168 
1.601035 1.596582 1240.664551 1347.246948 
2.079212 2.488771 3038.147217 2728.073242 
1.915950 2.031766 1763.416870 3546.007812 
1.779608 1.622927 2433.992920 1039.022949 
2.007680 1.901555 2474.104004 1485.313843 
1.923226 2.942153 1923.672241 3374.880371 
1.616596 1.374242 957.714722 820.130249 
1.396170 2.328502 1357.365234 2710.836426 
2.459387 2.456047 2331.364746 2623.782959 
2.674458 2.354447 5997.084473 3029.653809 
1.887603 1.614564 1861.027710 936.966003 
2.087760 2.619865 1628.735352 3649.389160 
3.531083 2.103652 9104.842773 1922.413452 
1.282331 3.189069 570.720947 9722.215820 
1.530564 2.355505 1577.167725 2063.519043 
2.960891 1.492685 4771.254883 965.140930 
1.636714 1.582804 1338.122681 1352.392334 
2.148000 1.637093 3589.154541 1333.325439 
2.491271 2.532235 2268.145752 1407.824097 
1.864736 2.206324 1706.992188 2593.180908 
1.612977 2.582618 1503.835938 3280.455322 
1.790747 2.555025 1359.120850 3403.537598 
2.547938 1.177389 2505.526855 611.632751 
2.110442 1.229853 2991.000488 649.511902 
1.600163 3.096707 1123.445068 5682.913086 
2.347932 1.862305 2696.232178 1096.304077 
1.875200 1.797364 1638.273926 1165.400391 
1.711927 2.352070 2090.947510 3384.723633 
1.823944 1.646338 1808.599243 1673.103882 
1.339927 2.015680 821.756592 1988.617188 
1.743520 1.961777 2322.113037 2556.472168 
2.181300 2.509982 3368.634521 1704.995605 
1.594567 2.868885 1066.237427 4237.719727 
2.053849 2.664672 1765.736328 5269.949219 
1.383339 2.609493 568.512390 3289.383789 
1.836034 1.909502 2187.721924 1449.919922 
2.298805 1.842549 3713.901367 1866.283203 
2.571674 1.858211 2506.284668 1362.326782 
1.921533 2.157211 2957.574219 982.323547 
1.658940 1.889837 2235.902100 1252.785034 
2.194702 1.802854 1705.838257 1385.241699 
1.304642 2.560919 981.311218 4198.356934 
1.772484 2.461115 1788.709595 3338.355225 
1.816511 1.994484 1443.854858 1314.719727 
1.511910 2.688106 1010.307922 2817.583008 
1.728923 1.774295 864.238525 968.174561 
2.170574 1.391401 4408.270020 592.728088 
2.053692 1.741941 2871.240479 1096.954834 
1.895128 2.029507 3106.295654 2100.202148 
1.600173 1.470171 1732.614746 740.973999 
1.983120 1.812318 3185.155518 804.177124 
1.391870 2.797546 958.522888 4598.008789 
2.313555 2.118059 3685.664551 1293.826904 
2.102458 1.255627 3295.754883 546.449158 
1.675065 2.143775 1615.752441 2095.656982 
1.872503 2.402265 1752.117432 2968.397705 
2.103794 2.426584 3257.496582 2046.084839 
1.765366 2.239509 1091.668579 3549.933594 
1.580343 2.526806 759.332214 3688.231201 
2.656457 1.303497 5556.536133 603.124634 
1.927504 1.546346 1957.477173 900.435425 
1.923715 2.147160 2380.581055 2974.640869 
2.414291 1.261191 4838.165039 321.713715 
2.766208 1.544367 6544.569824 802.149475 
2.979265 1.565409 5920.228027 1098.328369 
2.138853 2.343565 2271.007080 2944.704102 
1.313290 1.796151 774.116882 1463.803955 
1.986756 2.302320 2329.542969 3384.602783 
1.728800 3.049259 2034.924072 5435.855957 
1.339340 1.745528 813.693481 1689.346069 
1.767254 1.595213 1377.426514 1415.370728 
3.243433 1.256210 9084.115234 468.223511 
1.907991 1.870136 2729.696777 795.342590 
2.024764 1.471843 2631.139160 746.331177 
2.400946 1.975451 2811.505615 1847.923218 
2.094997 1.794118 1738.576782 1102.589111 
2.163868 1.277655 1785.442261 547.062988 
1.670738 3.446636 1394.146362 7747.198730 
2.516886 1.303981 3616.416748 613.089355 
1.917607 2.356391 1857.505737 1907.270386 
1.577113 1.775869 929.985962 1840.725220 
1.944022 2.660334 3450.615723 2362.964355 
1.453750 2.678219 1122.792114 4447.754883 
2.723084 1.456143 5694.692871 1036.970703 
1.853266 1.719658 2381.680664 1360.143921 
2.088176 1.366988 3060.091064 502.673767 
2.336131 1.754341 4351.809570 1076.827515 
1.807805 1.861341 2825.468994 2451.888916 
2.043728 1.245318 2923.477051 637.059998 
2.203974 1.625752 3161.264160 744.892883 
1.793976 1.386321 2411.575928 731.143066 
1.533448 1.933442 1263.870117 1307.286255 
1.735438 3.057893 830.319824 8447.405273 
2.002307 3.087771 3237.968994 6609.632324 
1.806948 3.439580 1696.965698 6885.508301 
1.838045 2.115901 2592.520020 1702.211548 
2.230161 1.726038 2184.527100 976.867554 
2.442077 1.826817 2662.623779 1285.724609 
3.044863 1.707725 6770.577148 1032.534546 
2.177575 1.207886 3680.059814 420.869568 
1.384575 2.923692 603.744629 6344.335449 
1.626050 1.737932 1758.447021 1077.393066 
1.336391 1.866894 666.449768 2547.799316 
1.683167 1.684332 1833.451294 1139.932373 
2.668178 1.611714 4405.492676 859.817749 
1.979601 2.266007 2664.804443 2289.654541 
2.728198 1.684043 3900.362549 1698.970703 
2.021233 2.133334 1929.399292 2395.617432 
2.340994 1.997741 3702.802490 1427.632568 
1.457697 2.357025 1102.195679 2799.682129 
2.520262 1.904239 3929.571289 882.397644 
1.908567 2.584444 2581.106445 1487.596802 
1.960951 2.263557 1740.613159 2785.770508 
1.657073 2.747612 1052.588135 3465.690430 
2.401535 2.561097 3119.533203 2068.506348 
1.554398 1.931275 1963.133301 2105.119385 
1.537814 3.262512 1198.621948 8063.591797 
1.785762 1.861918 1343.160400 1646.663208 
2.359042 1.856408 3577.553223 2300.945557 
1.600911 2.872363 1598.890747 4069.243164 
1.338745 3.031348 675.743652 5676.299316 
3.025622 1.945214 6525.075684 2138.859619 
1.902079 1.699795 1695.482056 1281.150757 
2.146517 1.991279 1957.284058 2008.055054 
1.536062 2.709205 707.424133 4487.166016 
1.967522 1.539100 2465.358643 1217.918823 
1.766364 2.001972 1298.215576 2469.286133 
1.258883 2.484994 570.410278 3791.188477 
2.251638 1.989229 2771.397461 1586.142578 
1.367178 2.880285 561.526672 4879.804199 
2.095620 2.044888 2905.719238 2265.994873 
1.825610 2.729627 2539.322998 2652.675537 
1.726738 1.648644 1945.037598 463.140747 
1.529162 3.033337 1055.826416 5498.822266 
2.307762 1.540181 5278.690918 1078.955933 
1.974641 1.566050 2042.753662 987.514526 
2.131417 1.682208 2170.518311 879.716187 
2.614271 1.715943 5093.892578 1009.377747 
1.882903 2.445714 2343.918213 1667.629150 
2.633823 1.916356 4624.979980 2526.864258 
2.002970 2.029723 2675.845459 3551.042969 
2.584720 2.077747 3904.569580 1484.839966 
1.803915 2.414055 2213.643799 2159.471191 
1.818221 2.170874 1684.902100 2021.053223 
1.859855 1.814485 1695.044678 1417.078003 
1.620040 2.661394 1881.749146 4192.518066 
1.813750 1.891476 2109.986084 1474.393066 
1.419298 2.629025 1054.310425 3256.358154 
1.404941 2.359471 857.586243 2080.212402 
1.482779 2.015388 838.385376 1877.476562 
1.557811 2.631545 1676.303345 2421.786377 
1.740932 1.940107 1326.714966 2055.736816 
1.675904 2.461342 1355.115967 3401.502686 
1.151484 2.369911 520.065796 4332.928711 
1.413104 2.048932 1156.136963 1820.593506 
2.791368 1.632188 4264.420410 1087.293213 
1.539246 1.796233 1236.762329 1389.736450 
1.913723 1.792898 2442.547363 1727.999023 
1.867284 1.852602 1686.585815 1876.301270 
3.189722 1.429231 8043.251465 802.331360 
1.421146 2.156075 919.048645 2738.714111 
2.008025 1.981369 2196.585449 2076.239502 
1.250630 1.896144 693.309082 2069.795654 
1.738875 1.712239 1624.541992 1527.244019 
1.984437 2.414146 1772.509033 2208.072266 
2.657043 1.893879 3987.084961 1014.584412 
1.547657 2.302615 1093.551147 2520.964600 
1.878876 1.982066 2041.355469 1090.695190 
1.702377 1.496502 1949.963867 383.674744 
1.935756 1.816173 1546.625854 1481.057495 
2.220355 2.165138 3619.670410 2383.660645 
2.093050 1.761436 2049.605957 2091.600098 
1.869686 2.323568 1072.845825 2965.011475 
1.781954 2.550109 1452.652100 2786.095947 
1.237516 1.870132 876.100220 1572.423462 
1.367970 2.841213 1261.780884 4082.908691 
1.787148 2.957745 1460.659546 4717.940918 
1.587761 3.347307 1682.950928 8059.512207 
2.057719 2.601169 2427.132324 4746.160156 
2.238256 2.085537 2661.270508 1952.416748 
2.207067 1.755020 2050.880127 1845.344971 
1.705643 1.915568 1444.528198 1589.507324 
1.330480 2.028212 1105.545044 2122.487305 
1.779500 2.397013 1910.320435 3265.284912 
1.293320 2.669833 391.166321 5411.469238 
2.206028 2.692643 4727.796875 3644.504639 
1.850568 1.975267 2400.810303 2241.926758 
1.205416 3.082288 710.086548 8268.600586 
2.023171 1.974465 2948.193359 1845.075439 
1.725240 2.291092 1601.435181 3037.980469 
2.022094 1.538576 2893.932861 959.085022 
1.667222 2.941904 1999.241699 5550.192383 
2.528367 1.257186 5183.469727 861.135559 
1.648077 2.526740 1621.332764 2341.984375 
2.026420 2.474938 2058.674805 2153.674561 
0.945447 2.317357 345.128052 3175.175293 
1.544333 3.098912 1377.075684 6065.650391 
1.771218 2.343976 1609.083252 3021.343506 
1.521507 2.244112 1076.834595 3614.064209 
2.059392 2.587708 1919.618042 3128.157227 
1.909675 2.270259 2230.034912 2914.534180 
3.042836 2.103804 6404.469727 2155.682617 
1.746391 1.647697 1753.712646 711.198792 
2.305958 2.773968 3192.520996 5288.762695 
3.012308 1.723727 5994.871094 1157.141968 
2.354872 2.609658 2547.673584 3591.586426 
1.427040 1.974837 772.779175 2094.979736 
1.748114 1.249023 1305.062012 661.491211 
2.612857 2.761082 5242.112305 3301.866455 
2.097251 2.451353 1370.510376 3212.010986 
1.561984 2.624383 1113.194458 4821.683594 
2.175817 1.594861 2676.205322 999.747742 
1.978279 2.502296 1011.152893 3207.856445 
1.370473 2.050555 965.040588 1841.088379 
1.617876 1.861336 1472.954956 1065.627808 
2.227962 1.531221 2733.736572 705.488708 
1.947648 1.834594 2453.852051 1098.491577 
1.904220 1.852261 2789.020508 1477.646851 
1.773229 3.053600 1863.373535 4151.552734 
1.978484 1.606541 2226.336914 1155.467407 
2.113695 1.281728 2506.493896 550.400085 
1.295461 1.707313 1208.963379 1261.186279 
2.253746 2.401642 2559.607666 2211.135742 
1.527675 1.370593 1613.202881 831.566711 
1.488331 1.803401 1514.178101 1995.468506 
1.542330 1.661716 1041.554077 1811.182251 
2.315125 2.248190 3974.224609 3025.271973 
1.605112 1.751262 866.388062 1385.371094 
1.770979 2.427122 1012.738586 2900.254883 
2.343842 1.931095 3977.645752 1450.800781 
1.445928 3.169730 930.936279 5597.760742 
1.538612 2.294576 842.180054 3098.633057 
1.758367 2.968632 1260.981567 3321.170654 
2.401884 2.084448 4956.173340 1577.640869 
2.418860 1.444195 2770.562256 486.145935 
2.520577 2.007919 3141.432617 2106.029053 
1.810711 1.304957 2708.211182 447.283020 
2.473709 2.368768 5050.585938 3415.660889 
1.492331 2.968576 569.116638 3166.905518 
1.361955 2.542278 1551.437988 5914.502930 
3.013402 1.768718 2817.527588 2050.804199 
1.694558 2.497767 1874.393921 4576.561035 
1.634853 1.784699 1428.495117 1312.230103 
2.703600 2.269161 5694.268066 2861.610352 
2.065562 1.850156 2761.547119 1795.513794 
1.632492 3.046637 1817.537720 5043.332031 
1.816829 2.953165 1720.113037 4904.921387 
1.658376 2.236507 1528.923706 3032.860352 
1.803302 2.222955 1346.073730 3486.200195 
1.489707 2.455214 1103.255981 3435.238037 
2.063679 1.803352 3206.446289 862.682190 
1.716248 1.981737 1381.902100 2410.447266 
1.733189 2.146714 1174.943359 1689.022705 
2.623665 2.470308 4317.608887 3854.218750 
1.362246 3.185477 646.510498 3923.093018 
1.451111 3.157896 656.158325 7620.443848 
1.964793 1.470917 1581.797119 723.396240 
1.773682 1.686442 1439.393799 1219.154297 
1.598922 3.063617 1338.132446 5576.978027 
1.665290 2.810193 1680.900879 4347.729492 
1.985014 1.252296 3361.034424 563.879761 
1.527695 2.791896 1110.368774 6649.889160 
1.812014 2.481672 1438.748047 3499.800049 
1.669532 1.778527 1739.743286 1717.757324 
1.998997 1.989945 2397.901855 1986.050659 
2.178453 1.694262 2497.871338 950.206909 
1.414655 2.272688 890.567810 2411.569580 
1.976504 2.504098 3163.167725 3171.416504 
1.881385 2.687670 1838.740601 2769.542480 
1.666713 2.211898 756.970703 2428.251465 
1.529748 2.092234 1587.976929 2062.935547 
2.478932 1.201474 3736.200195 560.462708 
1.400848 2.043638 893.754517 2200.901611 
2.568720 2.799100 5209.523926 4168.945801 
1.790144 1.893398 709.894836 1105.560669 
1.333618 2.399564 734.932068 3892.267578 
2.301479 2.085096 3191.276611 2879.507080 
2.649915 1.893452 6242.603516 1394.983887 
1.868792 1.611748 2081.749756 1053.189697 
1.987289 1.573026 2462.236572 1099.693237 
1.929321 2.346070 2438.825439 3016.565674 
1.516226 2.333000 798.531921 2692.209473 
1.766482 2.115005 1595.787476 3492.432861 
1.849822 1.690943 3184.024414 1619.938599 
2.322190 1.477346 4634.616211 554.988159 
1.688814 2.454544 1843.212891 2461.344238 
1.204659 2.582671 920.020630 3822.387451 
1.882382 2.245316 1926.115479 2149.212158 
1.738249 2.049968 1993.619019 1315.225952 
2.286538 1.391745 4555.539062 1055.964966 
2.273116 1.685310 2793.144043 950.572083 
2.233679 1.956614 2796.485840 1137.338989 
2.059373 1.901760 1777.489746 2835.268799 
1.766818 2.935337 1332.140137 5201.952148 
2.318810 1.442378 3682.556641 926.548584 
1.674627 2.022683 1396.958374 2273.048584 
1.637916 2.138806 1550.265015 3163.997803 
2.946443 2.214579 5076.235352 2003.849243 
2.520596 1.578116 3576.553955 835.493530 
1.481312 1.914190 1215.947998 2128.137695 
1.853052 2.640612 1465.930786 3438.033936 
1.867101 1.562205 2156.088867 938.378723 
2.337984 1.376987 2289.732422 1236.380249 
1.589498 2.293009 1521.656372 1879.593018 
2.260852 1.872573 2813.351074 1548.533081 
1.886541 1.572188 2132.129883 1114.706543 
1.515670 2.479939 911.021240 2710.245850 
2.131665 2.129912 3404.601074 2072.358643 
2.551804 2.652150 4311.434570 3501.931641 
1.762704 1.497452 1903.023682 922.117432 
1.356815 2.975243 910.742126 4409.043945 
2.309616 1.630013 4039.966797 449.493805 
1.801303 1.693489 1539.044312 1078.620361 
2.011693 2.083356 1542.337158 1554.725342 
2.285228 1.842512 2108.318115 1061.705688 
1.504792 1.838385 964.820923 1651.830078 
1.934064 2.694302 2015.862793 2781.304443 
2.167452 1.903602 1431.768433 1971.158081 
1.374542 2.510689 564.887024 4665.369629 
1.805895 1.855274 1450.147949 1427.062866 
2.253541 1.881706 2328.663574 1954.370239 
1.496844 1.998132 1221.379639 1594.976562 
2.312480 1.786284 2936.692383 1565.799316 
1.512286 2.596632 1370.175049 2566.345459 
2.469763 1.235900 5219.934082 453.705902 
1.236005 2.355627 1178.312134 4035.597900 
1.694724 1.935961 1413.037964 1756.363403 
1.674054 1.239207 904.941650 878.756409 
2.527192 1.188879 3337.846191 667.049072 
1.200989 1.864357 531.217529 2363.397949 
1.348328 2.465078 1264.627197 2687.202637 
1.598262 2.054591 1741.336182 2672.276123 
1.673095 3.055352 1199.066650 6644.924316 
1.681145 2.924071 1963.657715 2889.742432 
1.483707 2.530020 1304.751709 1999.163574 
2.204923 1.576839 1878.458130 637.578430 
1.446099 1.993474 948.520020 1117.540771 
2.318120 2.219750 3240.126221 2583.710693 
2.062703 2.455544 2072.418213 2979.179443 
1.899926 2.096913 3288.470703 2024.808350 
2.080651 1.748623 1705.161865 1895.622559 
1.787883 2.035298 1380.185913 1830.607544 
1.885242 2.636347 2171.805908 2966.002197 
1.653124 3.424231 673.668701 7088.063477 
1.720927 2.170854 1702.681274 1914.869141 
2.022190 1.862116 2794.584961 1317.390747 
2.572495 2.199101 4147.186523 2012.226440 
1.509889 1.541023 1328.906860 1155.086914 
1.495877 2.478889 762.825989 3774.122314 
2.475754 2.420064 3843.383789 3741.810303 
1.549071 1.787579 1472.893555 1858.611694 
1.661840 2.180520 1740.437988 1894.889160 
2.322886 2.222730 3659.532715 1931.963867 
1.966451 1.234664 2745.519775 645.000671 
1.751858 1.919886 2787.092529 1495.769897 
1.964576 2.406153 1876.784302 3568.859375 
1.992780 3.083044 1952.328369 4719.902344 
3.303391 1.212365 8337.533203 353.259033 
1.696077 2.219275 1488.679321 2756.048584 
3.073988 2.547452 4599.024902 6082.820801 
1.986627 2.099520 3266.984863 2023.656738 
1.066367 2.298796 399.403290 2254.544434 
2.368923 1.208569 4106.198730 512.644714 
1.618915 2.978240 1649.075439 8117.602539 
2.160639 2.107414 1742.271240 3327.045166 
1.909935 2.128447 2011.764404 2345.634277 
1.501374 1.604784 1198.000122 1475.154541 
1.600535 2.283147 1371.220947 2910.117920 
1.962130 2.404795 2077.236572 2891.397217 
1.397771 2.462627 886.926025 2131.431396 
2.000323 1.977281 2551.441162 1402.268921 
1.850444 2.022856 2080.494629 1447.712036 
1.762289 2.931003 1190.644043 5756.764648 
2.446295 1.220429 5580.119629 601.916382 
1.896138 1.539605 1680.060059 1240.661743 
1.867660 1.465888 1571.994019 918.455627 
1.821857 1.993441 2442.252441 1582.600708 
1.998215 1.612608 2214.299316 1531.202271 
1.761054 2.349265 1224.206421 3359.822998 
2.328847 2.624067 2743.397217 4371.876465 
1.577538 2.424261 1010.718323 3974.697510 
1.636943 2.005532 662.407715 2171.660645 
1.699140 1.837340 1780.535278 2004.513672 
1.613405 1.898744 1140.420044 2026.598877 
1.967268 1.697018 2197.929688 1828.707520 
1.789786 2.030372 1274.493408 2175.899902 
2.112687 1.513415 3916.954102 1190.401001 
1.773354 2.816465 2269.614502 2562.833252 
1.114798 2.545544 747.759155 2179.637695 
1.401409 2.560089 980.135315 4277.011230 
1.665683 1.192645 1528.449829 542.586609 
2.287588 2.243202 2303.941406 3272.273193 
1.707436 1.522039 2687.320557 846.812256 
2.182344 1.828470 3583.205078 1478.939453 
1.577271 1.859882 1202.833862 1950.505615 
2.924621 1.411712 5481.951660 929.852966 
2.234601 1.740284 2935.557129 1668.760132 
1.577117 2.311913 1192.636841 2970.247070 
2.410411 2.047967 2932.770508 1856.833374 
1.554459 2.559568 1043.448486 2923.758789 
1.559648 2.569342 1367.260864 2480.579102 
1.972798 2.399790 2007.767578 3228.639404 
2.228258 1.624907 3058.349854 1222.063843 
0.849745 2.245614 197.077042 3337.860596 
1.882407 2.649355 1697.605347 3438.473877 
1.888119 1.682715 1312.397461 1489.965210 
2.306940 2.206136 2910.934570 1289.018921 
1.430003 1.840797 1021.868164 1615.992188 
1.536396 1.654774 1829.046875 1394.465210 
1.146175 2.365423 945.572327 2403.275391 
2.842795 2.789856 6787.426270 3669.941162 
2.286406 1.334084 2782.416016 680.163330 
2.015472 1.863803 2272.149902 792.005432 
2.443060 2.105426 3907.154297 1498.624756 
1.554159 2.402122 1781.834106 2709.375000 
1.374148 2.930728 1010.513672 4341.093750 
1.866761 2.005769 1079.591675 1557.503174 
1.659069 2.079593 1100.954590 1675.572632 
1.783647 1.392355 2131.963379 886.374512 
1.513388 2.404007 615.981140 2005.259399 
2.154932 2.414117 2803.565674 3323.564697 
2.561764 2.251379 2967.945312 3533.953613 
2.147483 2.136756 2014.461670 1390.385132 
1.621604 2.394986 954.697571 3978.848389 
1.690425 2.840172 1320.057983 2837.484375 
1.391143 1.923788 566.816711 1764.543945 
1.718009 2.143507 2480.777100 1628.603882 
1.882027 2.125947 1706.528931 2077.340088 
1.537760 2.369366 1540.982910 3101.727051 
1.680445 2.250884 1519.704346 2857.457275 
1.270503 3.275920 549.962280 5888.272949 
1.594358 1.638955 1271.360474 1442.399414 
1.856636 2.215218 1404.636963 1198.110596 
1.348935 3.181425 1195.649292 5913.395996 
2.015616 2.452304 1683.747314 3123.075684 
1.657443 1.971067 1405.811646 1129.515137 
1.514158 1.791880 908.444946 2223.000732 
1.449514 2.677815 1022.504333 3200.711426 
2.189799 2.002673 3780.314453 2172.861084 
1.916751 1.800233 1645.238647 1361.780273 
1.734865 2.352608 1548.964722 4961.940430 
2.049048 1.658984 2555.813232 1960.173828 
2.142394 1.723418 1043.072876 1145.939331 
1.061584 1.898906 503.018372 2462.630371 
1.866752 2.246661 1006.777588 2552.947510 
1.827466 1.373836 2280.876221 718.745117 
1.568103 2.394744 1476.287354 2457.569580 
2.107541 1.530978 3693.240967 1241.502930 
1.350208 1.881272 985.632874 1834.399658 
2.027908 2.504565 1971.161011 4138.366211 
2.000857 2.006510 2824.841553 1085.322144 
2.234793 1.483258 3227.765625 980.706421 
1.804333 1.653807 2215.728271 2276.362305 
2.120570 2.038003 3502.463867 1504.245117 
2.501345 1.506013 4642.136230 953.887329 
1.875658 3.507265 1507.098145 3990.711670 
2.625412 1.449929 3990.246094 846.978760 
1.973409 1.320077 4155.805176 786.931152 
1.444658 2.456060 712.764648 2130.413574 
1.386945 3.213745 1188.390869 5015.241211 
1.655597 1.475495 1335.662964 1636.733154 
1.814007 3.258424 2379.601074 5915.314941 
2.163585 1.387494 2191.206787 858.407715 
1.502666 1.854959 1093.727905 1533.614990 
1.675775 2.321571 2140.936768 2028.043213 
2.141344 1.409448 3603.887695 979.823242 
1.867344 1.450299 2460.187012 620.167236 
1.759387 2.347207 2119.385742 1828.631470 
2.067373 2.557348 2313.477783 4636.351562 
2.029525 2.511889 2840.734375 6072.952637 
3.125275 1.087028 5433.860352 256.524658 
1.644986 1.893416 1171.974854 2632.544434 
1.378730 1.623507 860.425415 884.168213 
2.666785 2.159569 4384.989258 1888.556641 
1.801797 1.760784 1454.786377 1015.045959 
2.137105 1.484892 3317.874756 849.195129 
1.619806 1.876512 1310.918091 2041.237671 
1.307683 2.315180 1117.381348 2717.792969 
1.722384 3.291454 992.949158 5387.442871 
1.857025 2.077063 1782.385620 1834.228882 
1.357103 2.332473 649.201355 3696.994873 
1.705356 2.510893 1085.140869 4338.836426 
1.662336 1.876219 1415.259766 1027.208618 
1.373145 2.780602 626.089050 5561.704590 
1.208490 2.184716 497.986084 2275.213867 
1.331401 2.473821 990.519836 3318.846680 
1.374699 2.628401 719.797363 4119.109375 
1.961378 3.309392 3154.007324 8222.624023 
1.892481 1.853011 1868.682373 1711.875977 
2.721364 1.814371 6290.738281 1528.847290 
1.669294 2.965705 894.818481 4724.620605 
1.877215 2.755063 1472.627075 4590.844238 
2.528991 1.182239 2888.057861 399.259064 
2.551540 1.733133 3631.274414 1100.042236 
1.481268 2.438070 1134.357666 5414.736328 
1.772572 1.843348 886.404541 1358.254883 
1.659574 2.521976 1243.942017 4497.211914 
1.578662 3.392093 1454.508667 7539.804199 
2.041326 1.977281 3407.265137 1265.625366 
2.319758 2.048381 3934.679688 1871.062988 
1.523263 3.109668 1870.146240 4096.270508 
1.819530 2.073929 1613.786499 2082.697266 
1.080858 2.908229 372.325104 3955.656738 
2.055789 1.294855 3416.812744 549.552551 
1.963210 1.885843 1855.480469 1512.472534 
1.843967 1.720854 2453.635254 1630.377197 
1.855749 2.460045 1796.382935 2692.318604 
2.272589 2.228531 2328.934082 2848.409912 
2.057415 1.999712 2384.960205 1525.063843 
1.606894 2.638117 1042.008911 2762.184326 
1.323015 2.514854 470.530365 3925.380859 
1.476305 2.195026 607.771606 3551.483398 
2.269291 1.340320 3468.752441 733.460815 
1.637552 2.310434 1435.282227 2313.445801 
1.568914 1.619345 2015.432007 1257.284424 
1.944522 2.429243 1682.241821 2213.388672 
2.192667 1.420867 3549.686768 853.184570 
2.085355 1.822096 1346.681030 1269.505371 
2.347332 2.075299 1773.867065 1739.035522 
1.171599 2.856137 530.558777 4691.818359 
1.536630 2.268899 1417.690918 2550.520264 
1.705105 2.166196 1140.154053 1618.394653 
1.699234 2.896647 2265.269531 5511.804688 
1.756368 2.398036 1956.358154 3470.721924 
1.881370 1.977223 1914.367310 1897.607788 
1.534910 2.537898 441.634003 4494.731934 
1.818952 2.867944 2285.526367 4277.410645 
2.069040 1.266309 2350.640625 466.062988 
1.960588 1.705034 1926.170898 1108.663452 
1.948033 1.382141 1940.134644 442.614807 
1.702718 1.492675 1608.423218 1057.401855 
2.356412 1.604205 2988.324219 1283.840088 
1.559444 2.722864 1869.501465 4662.239258 
1.618785 2.000534 892.710815 2545.533203 
1.562045 2.295903 1308.055786 4208.175781 
1.737437 2.129547 2216.905273 2472.090576 
1.745767 2.285970 1373.661865 2399.979248 
1.537424 2.709217 1045.533569 2840.274170 
2.084192 1.642395 3514.258057 1107.952393 
1.895919 1.887481 1230.180298 2035.622070 
1.660134 2.098277 1239.062012 2579.862549 
1.591780 2.152041 1229.555786 2821.452637 
2.469900 1.559832 3922.757812 1427.257446 
1.958067 1.578766 2632.561279 902.255249 
1.412709 2.222593 1210.053345 2652.695557 
2.782668 3.600765 6825.733887 6192.964844 
2.029277 2.226442 1656.974731 1421.241089 
1.540310 2.557930 1131.031250 4739.662598 
1.870619 2.260458 1822.575562 2964.141357 
2.002469 1.817484 2081.051514 1231.553589 
1.776453 2.240271 1917.712891 3692.763184 
2.210799 2.501273 2952.716553 3041.438721 
1.590019 2.312816 1399.161011 3351.975098 
1.643821 2.522565 1217.462646 4679.909180 
1.613671 2.063257 1312.809448 2447.208252 
1.994074 0.965161 2464.694092 246.945099 
1.956302 1.750074 2489.599365 1638.801147 
1.843449 2.891692 2017.210083 3465.135742 
1.728911 2.751254 1072.955078 3843.303467 
2.369062 2.413749 2971.407471 1891.373779 
1.480627 1.667758 1268.660645 1092.014893 
2.116449 2.113113 1751.947754 2100.445557 
1.705732 1.395236 1939.868042 649.223145 
1.921389 2.585987 1667.635132 4568.165527 
1.730242 1.912127 1359.869385 1050.331543 
1.864838 2.107665 2176.134277 1757.700928 
2.404215 2.968480 3123.864502 3894.314941 
1.639943 1.920739 1944.483154 1771.954346 
1.301952 2.015404 952.167297 1711.059204 
1.839639 2.039219 1832.197021 2596.321777 
2.266321 1.208861 4223.471191 521.608276 
2.833005 1.641999 6062.435547 1012.096802 
1.300995 2.041286 769.185852 2382.878418 
2.361147 2.290116 4498.325195 2324.918701 
2.300860 2.026217 3301.989258 1292.571045 
3.088420 1.460796 6140.594727 480.404053 
1.553545 2.645624 968.766418 4931.936035 
1.881239 2.432709 2234.975342 3371.942871 
1.591524 2.080243 1750.034180 2144.488037 
1.973096 1.861267 2335.713135 1621.425903 
2.269373 1.947788 4128.717773 1697.043457 
1.806713 2.225369 1837.790649 2476.108398 
1.837523 2.344321 2399.678955 1633.994507 
2.080187 2.473481 1549.881836 6117.992188 
1.470906 2.263494 1562.269897 2730.899414 
1.687165 2.106211 1429.775513 2573.701172 
1.641132 1.982976 819.937439 2061.363037 
1.683698 2.900821 1233.340454 3123.698975 
2.111017 1.907557 2370.729736 1781.858398 
2.071931 2.831932 1591.755005 3099.659180 
1.691798 1.731620 1169.205078 1349.874512 
2.002367 2.205070 3366.235352 2261.544434 
2.023052 2.154935 2600.671875 1707.346436 
1.996494 1.459155 1562.447754 1021.088257 
2.971499 1.756857 4228.987305 1165.099854 
1.435195 2.329076 952.816040 2474.570068 
2.119814 1.780793 2014.956909 2017.795044 
1.484398 2.775408 779.738647 2756.078857 
1.612750 2.972984 1696.145508 5570.795410 
2.006041 1.993040 1532.198486 2238.897217 
2.353167 2.204720 5051.997559 2623.349609 
2.691756 1.594454 5093.537598 1025.541260 
1.622076 2.295479 1503.139771 3699.425537 
2.058969 3.164290 2034.287109 6960.121582 
1.825662 2.005156 1235.879883 1354.453003 
1.853201 1.534440 2186.807617 933.460144 
1.696259 2.484269 1983.742310 5743.720703 
2.149063 1.932465 3096.852539 1931.027100 
1.961236 3.271655 1114.912476 3389.071045 
2.319075 2.194726 2538.956787 2091.465576 
1.459408 3.101598 934.784790 4333.252441 
1.436808 2.639196 1440.263550 3203.308350 
2.078067 1.847356 1964.363647 1686.862305 
2.026983 2.897716 1980.928955 3520.966064 
1.765799 2.358047 1925.974243 2769.688232 
2.275147 2.281142 2521.832275 2966.232422 
2.439782 1.619511 2653.485107 1065.312744 
2.457732 1.907677 3494.133789 1439.758423 
2.559025 1.715477 3883.602051 1862.971558 
1.371258 2.995523 835.551758 8712.916016 
1.333421 2.223108 760.295715 2975.982178 
1.809449 2.528372 1913.240479 3337.611084 
1.990757 2.424594 2927.668457 4123.669434 
2.425854 2.071669 2881.869873 1678.935181 
1.736904 1.694052 2347.646729 1184.188477 
1.497029 1.976555 996.379517 1985.281982 
2.210415 2.540535 2858.638428 4084.498779 
1.513431 2.307401 982.778564 2251.709961 
3.300301 1.656179 3787.001221 1155.139526 
2.329518 1.711586 5451.005859 1495.843384 
1.435031 1.865094 807.284180 1467.147949 
2.558747 2.007999 4189.522949 2057.206055 
1.507194 2.390562 1033.336426 3040.244629 
2.266296 1.898955 2923.414795 2279.338135 
2.617860 1.579756 3016.432861 899.978394 
2.015122 1.221125 3554.733154 433.587280 
2.243762 1.976186 2780.379639 1585.814697 
1.522225 2.822719 1165.002808 5132.548828 
1.429567 2.688862 867.908691 3631.264648 
2.656898 1.242081 4454.727539 851.704956 
1.518350 2.553916 1352.111694 3043.242188 
1.582704 1.886071 1320.192383 1856.103394 
1.684033 2.313529 1707.266235 3251.622314 
2.177999 2.551458 2070.133057 4454.474121 
2.120008 1.726535 2459.464844 1113.771973 
2.493534 1.373180 6480.973633 467.333740 
1.720354 2.385032 892.030884 2550.992676 
1.799668 1.407495 2070.393066 561.956848 
1.438888 1.744657 775.976501 1955.486450 
1.632958 2.924775 1159.113647 3894.413086 
2.307924 2.932677 2484.600586 4305.971680 
1.464769 2.247230 627.499268 2679.845703 
2.317321 1.896853 2417.350098 1646.850098 
1.494971 2.626515 889.516785 4253.351074 
1.921359 1.733805 3439.045166 1199.022217 
2.421408 1.918275 3776.005371 2277.230225 
1.689896 2.057985 1548.248169 2392.079590 
1.953695 1.792981 2009.216431 1509.266113 
1.427751 2.486470 1558.992310 2259.882324 
1.505653 2.878680 1236.133911 4308.719238 
1.225597 3.221808 844.264343 3037.323242 
1.496438 2.925566 710.197021 5055.409180 
2.036849 2.482875 1594.669556 2539.172119 
2.099784 2.139281 2316.227051 1725.444580 
1.747498 3.253964 1629.540405 8492.740234 
2.882727 2.194820 3800.988770 2459.997314 
1.937514 2.194800 2227.094971 2526.191650 
2.013724 2.095477 1995.486572 2242.542480 
1.940292 2.970839 1929.834106 5502.158691 
2.558303 1.939244 5134.978516 2543.401123 
1.689827 2.307147 2077.500244 3408.486572 
2.558038 1.492267 3258.555176 1568.564087 
2.186400 1.397944 4065.332275 438.131195 
1.709233 2.384573 1514.664429 3057.654053 
1.975939 2.786085 2058.607178 3068.534668 
2.224800 2.014225 3911.522217 1574.044800 
1.689740 1.819952 1603.532959 1818.007324 
1.312264 2.682213 712.989868 3893.530273 
2.279900 2.836004 2450.292480 3645.558838 
1.695034 2.337756 1595.529663 2515.665283 
2.144381 1.887387 2946.075684 1564.753662 
2.041766 1.851364 2767.284180 1523.646729 
3.304938 1.435892 9058.169922 1124.086304 
1.661281 1.910959 1071.963745 1678.337891 
2.105940 1.290607 2365.398682 499.519043 
1.967743 2.180395 2648.587646 1678.598877 
2.026940 1.979414 1743.998535 1720.405029 
1.502196 2.300339 1051.968628 3553.784668 
1.974015 2.755395 2566.823486 2192.344727 
