9.313290 1.331141 148674.734375 404.207031 
3.705602 4.028841 4908.070312 3923.650146 
3.840096 3.543670 2926.445312 3321.631592 
3.485119 3.973155 2815.948242 3631.955811 
3.871877 3.803912 4019.677246 4083.484131 
3.722383 3.974816 3721.579346 5365.211914 
3.942156 3.685724 5815.937500 2928.009521 
4.135862 4.051746 3889.889893 4453.118652 
3.675944 3.596758 2327.794434 5369.339844 
3.703807 3.359787 4024.280029 2930.402100 
3.595829 3.626938 3720.937256 2735.762207 
3.670020 3.535303 3246.278809 4658.572754 
3.423928 3.876678 2750.642822 4240.178711 
4.333039 3.629796 4923.937012 3830.003662 
3.775598 3.844573 4465.054688 4043.382324 
3.425871 3.345594 4396.299316 2635.967285 
3.548235 5.088308 2624.020508 7020.797852 
3.694479 3.862581 2260.103516 5048.684570 
3.696492 3.935616 5253.372559 3558.646729 
3.962002 3.501322 4426.334961 2894.925293 
3.713765 3.731667 2671.126221 4309.894531 
3.862561 3.277752 7892.260254 2691.052246 
3.257692 3.605717 3322.746582 3818.436523 
3.367959 3.821876 3320.768311 4206.893066 
3.711688 3.511548 4649.734863 2594.586914 
3.597471 3.745047 4094.272461 3845.175781 
4.113957 3.832903 6003.203613 3039.323486 
4.035063 3.726943 4952.818848 4942.527344 
3.831102 3.561339 5445.070312 1910.752563 
4.559478 4.320395 6452.183105 3652.647705 
3.787001 3.855865 3366.606689 4051.603271 
3.999190 3.834643 6390.524414 2777.992432 
3.866765 3.396183 5318.290527 2651.849609 
3.475993 4.607657 1605.227539 5908.673340 
3.785216 3.935625 3709.057617 4556.868652 
3.714445 3.824856 4079.478271 3155.991699 
3.947151 3.953923 4548.325195 4576.005859 
3.251981 4.033997 2690.711914 5883.348633 
3.965878 3.862938 7050.911133 2837.598633 
3.348941 3.784803 2187.832764 4090.129150 
3.709411 3.987603 2785.875732 4860.080566 
4.131790 3.542485 4041.505615 3841.978760 
3.445019 3.609756 3041.795410 5400.568359 
3.699592 4.157998 3277.780273 7708.897461 
4.205941 4.178077 3275.162109 3430.830811 
3.783903 4.251605 2689.488770 7052.613770 
4.165196 3.520748 7911.932617 3071.995361 
3.552441 4.121680 3400.647705 3729.796387 
3.538481 3.761371 3090.070557 3993.771973 
3.707200 3.886074 5281.446777 4098.728027 
3.629643 4.021359 3709.577148 4340.166992 
4.064875 3.531648 4407.432617 3300.867188 
3.726779 3.482792 5610.570312 2338.182861 
3.340630 4.140214 2377.731689 6621.926758 
3.832853 3.636169 4480.981934 3103.435791 
3.978701 3.684140 5618.921387 3828.991943 
4.252253 4.215448 5963.351562 2580.661377 
3.585213 3.748279 3020.836670 5050.804688 
3.680051 3.557089 3575.458252 3213.049316 
4.452291 3.690138 7190.302734 2961.889893 
4.065964 3.934379 6080.431641 3651.391113 
3.486420 4.320897 2854.372559 6385.656738 
3.910146 3.464307 5062.380859 1812.021484 
3.604158 3.743292 5598.608398 5838.451172 
3.820271 3.737507 3480.775635 3351.496582 
3.506551 3.843046 5626.428223 3303.727783 
3.657820 3.879106 4225.216309 3637.836670 
3.865852 4.053182 4254.057617 6720.189941 
3.600525 3.607459 2895.936035 4327.253418 
4.103991 3.764932 2300.865479 5083.140137 
3.685505 4.056924 3805.710449 4006.732178 
3.858598 4.063202 3452.013184 3885.464111 
3.625719 3.707517 3986.929443 5299.580078 
3.596330 3.704974 2869.638916 2803.967041 
4.608160 3.665310 6109.650879 2903.795410 
3.827157 3.513938 4030.772705 3153.373779 
3.316553 4.105748 2773.751221 7632.914062 
3.764114 4.204045 3199.187500 7217.224121 
3.608535 4.349501 2691.668213 4999.121582 
3.874326 4.114983 3238.412598 6922.694824 
3.803030 3.669438 6358.973633 2419.638428 
4.133089 3.872984 4639.733887 5967.104492 
3.891586 4.577796 3389.822510 6409.312012 
4.021215 3.488036 4596.252930 2901.673096 
3.627193 4.003935 5977.450195 4303.522461 
3.341451 4.029650 2822.978027 6710.403320 
3.138653 4.025099 1963.527466 7108.137207 
3.102844 3.595610 2215.297852 5440.782715 
3.676279 3.961897 4191.551270 6287.085938 
3.870920 4.632965 2800.833740 5666.534668 
4.306282 3.442473 4037.164551 3365.808838 
4.140863 4.074421 4938.405762 4897.147949 
3.463548 3.846015 3510.421875 3558.060791 
3.383394 3.725366 2486.045898 6537.454102 
3.724675 3.377973 3561.612549 3590.734619 
4.021740 4.162931 3069.857422 6900.963867 
3.657218 3.657965 2953.303711 4244.675781 
4.060128 3.776319 5206.429688 4263.851074 
3.984397 3.965809 3167.102051 6682.605957 
3.286821 3.719781 2360.997803 4529.115723 
3.509006 4.467257 3093.888184 5723.996582 
3.514610 3.905527 2707.061768 7714.022949 
3.811180 4.012866 3396.540039 3388.042725 
3.468040 3.854831 2823.833008 7051.894043 
3.486525 3.787748 2508.195801 6004.921875 
3.534394 3.777317 3463.190674 2917.137207 
3.598040 3.874862 3118.673096 3843.269775 
3.835528 3.976235 4397.929688 3794.593750 
3.253227 4.373677 2299.404541 7004.166016 
4.148674 3.890256 4560.625000 4189.330566 
4.271401 3.773705 3293.495361 3515.432617 
3.570891 4.103076 3518.686523 3803.442871 
3.678293 3.717035 3526.442627 4905.541992 
4.202806 3.490728 2989.821289 4284.362793 
3.833711 4.071675 3107.155762 6015.534180 
3.865734 4.136930 4731.538086 4450.731445 
3.495743 3.961456 3997.121826 4538.018555 
3.772217 3.625104 2155.566162 3753.180664 
3.433174 4.185607 3094.959961 3995.522461 
3.827098 3.509250 6367.204102 2778.979004 
3.640227 3.458062 3129.707031 2958.197510 
4.149437 3.489566 6681.992188 2616.418945 
3.831347 3.419835 3525.153076 4359.865723 
3.978177 3.854552 3069.343262 3055.648926 
3.780576 3.419437 4916.869141 2983.215576 
3.796394 3.915471 3922.502441 5646.720215 
3.688136 4.543768 3178.225830 13235.939453 
3.883666 3.498637 3023.163086 4305.761719 
3.877784 4.194115 3121.314453 5163.287109 
3.453542 3.184117 4938.740723 2124.087158 
3.883883 3.698789 4896.290039 3190.658447 
3.783279 3.422561 3373.429443 4274.193848 
3.600433 4.175232 3212.311035 5104.398438 
4.059817 4.126681 4389.074219 7379.480957 
3.699866 3.530652 7272.736816 3203.576660 
3.759629 3.741684 4557.020508 4602.750000 
3.695175 4.118642 4725.448730 5425.584961 
3.483558 3.991287 3565.090576 4340.744141 
3.951385 3.325327 4972.376953 3058.139648 
4.273513 3.406497 3974.346191 2751.823486 
3.936182 4.132628 3808.083496 5062.611816 
4.036073 3.699998 4769.067871 2710.650146 
3.645104 4.084282 2739.633789 5645.162598 
3.493036 4.165746 3059.173096 9093.845703 
4.365808 3.478085 12138.833008 3505.343750 
3.498718 3.683443 2615.345215 5189.256348 
3.881152 3.665535 3751.383545 3154.360107 
4.214993 3.643322 6797.011719 2497.880127 
3.597161 4.065903 4747.961426 5834.201660 
3.368122 3.740149 1671.318481 3805.595703 
3.854004 3.605543 4215.419434 3572.146729 
4.417070 3.515403 5371.960938 4007.739746 
3.624880 4.357794 2309.630127 8108.056152 
3.794804 3.412312 4305.220703 3462.538330 
3.155414 3.583155 2358.293701 7801.326660 
3.876137 3.106777 6417.729492 2014.065308 
3.419092 3.918430 1430.116821 7140.372070 
3.700462 3.656980 4619.854492 2580.522461 
3.739056 4.140460 4275.886719 3694.427246 
4.038892 4.067815 3523.893066 3948.487793 
4.011491 4.126363 3345.921631 6647.112793 
3.807650 3.475178 4721.817871 2278.228271 
3.792412 4.533242 4812.272461 4871.270020 
3.685173 3.716562 3865.625244 4291.243652 
3.631101 4.697780 2214.030762 4395.225586 
4.055027 3.754827 7970.350098 4657.296387 
4.296969 3.544205 4744.162109 3560.084229 
4.153850 4.430066 2932.375000 9691.978516 
3.501456 4.306105 3449.527100 5467.227051 
3.700649 3.346546 5466.839844 1939.804199 
3.444139 3.653829 3872.268555 2868.931396 
3.529063 3.920963 2781.962646 4484.682617 
4.383926 3.661401 5001.543457 3481.288086 
3.791289 3.859961 2867.465088 5338.854004 
3.546205 4.129792 5360.533691 2866.661377 
3.042660 3.874983 2390.631592 6305.560059 
4.205212 3.761581 4802.403320 2213.376221 
3.963654 3.967140 4239.750977 2388.857422 
3.856470 3.688489 3481.751221 4677.209473 
3.523645 4.060216 4614.717285 2671.714844 
4.453362 3.459767 6902.581055 2610.291016 
3.947554 3.790818 4324.680664 2695.881592 
3.492282 3.385708 4219.765625 2884.181396 
3.533788 4.061557 2962.110840 3873.816895 
3.637251 3.916477 2212.649170 4471.002930 
3.780043 3.293290 6646.505859 1932.505127 
3.522014 4.081450 4051.011230 4331.477539 
3.704353 3.906435 3227.009766 5246.220703 
3.456521 3.400033 2259.604980 3910.909912 
3.495710 3.690906 2832.141846 5564.649414 
3.672614 3.980727 4237.834473 6446.232910 
3.974139 4.073510 4701.041992 4019.783691 
3.461487 4.154483 2621.864258 2786.320801 
3.726222 3.967672 3615.883301 4614.558594 
3.982303 4.124118 1965.327393 7765.970215 
3.728619 3.407712 8733.687500 1983.466919 
3.913763 3.709167 4195.794922 2860.036621 
3.716106 3.757514 3662.049072 3575.334717 
3.682469 4.076065 4372.509766 3069.706299 
3.659556 3.798048 3328.955322 5250.799805 
3.947940 4.031177 5244.970703 5919.312988 
3.532418 3.300645 3705.357666 3506.239014 
4.118270 3.751148 4821.771973 5299.310547 
4.199352 4.060035 5676.016113 4224.840332 
3.751822 4.066654 3379.999512 3158.912354 
3.769963 4.587538 3271.862549 3786.417236 
3.675450 3.972933 3659.447754 3163.331787 
3.781366 3.990675 4398.126953 5028.712891 
3.791420 3.750798 3808.677002 3130.265381 
3.729336 3.892437 4266.423340 5636.223633 
3.839383 3.409017 5283.542969 3426.258789 
3.650950 3.433448 3991.874023 4299.261230 
3.818926 3.975597 5529.927734 3203.905518 
3.498506 3.806727 3777.008301 2785.490479 
3.600526 3.307348 3985.274658 2484.165283 
3.434891 4.144279 2650.736572 5179.396484 
4.236665 3.528297 4412.202637 2802.410889 
3.708580 3.872549 4523.550781 4384.721680 
3.654721 3.893741 3574.745361 4139.201172 
3.793753 3.525465 4124.666016 2035.303467 
3.312896 4.512266 2889.758789 5276.716309 
3.498425 4.321780 3202.752441 6902.252441 
4.002943 3.816154 6899.614258 2595.142578 
3.593287 4.569704 5223.731445 2732.333984 
4.001449 3.861142 3139.109863 4349.033691 
3.642347 4.128571 4138.184570 5937.982910 
3.576950 4.006084 2955.870605 3820.536865 
3.309112 4.135854 2337.892334 7176.268555 
4.427655 4.023794 5846.835449 5869.122070 
3.849301 3.385436 4728.995117 3778.654541 
3.500800 3.532384 4115.005371 2977.026855 
3.814268 3.107781 4287.476074 1553.102173 
3.897810 3.629420 4463.581543 6200.626465 
3.950330 3.833891 4149.939941 2379.162598 
3.673885 3.627954 5249.246582 2747.652100 
3.689445 3.658204 3119.596191 4594.574219 
4.609416 3.564546 5734.060547 1839.372314 
3.844862 3.740739 4300.376465 4330.730469 
3.262825 3.874066 2786.419678 2308.244141 
3.458662 3.567858 3086.772705 3828.220215 
3.807670 3.950050 1364.045532 7585.565430 
3.540979 3.955265 3170.456787 4303.599121 
3.344473 4.065026 2429.720947 4147.974609 
3.823105 3.561785 4741.460938 2785.426514 
3.975309 3.808767 3902.943848 3831.828369 
3.238823 3.740420 2672.933350 3892.625000 
4.057494 3.996361 5650.940918 3998.788086 
3.909343 3.210046 7086.511719 2473.714844 
3.320457 3.891951 3082.395264 1961.218506 
3.704789 3.957797 4336.606934 2496.357910 
3.967587 3.514730 4228.467285 2654.414551 
3.781902 3.532267 4565.083496 2432.282471 
4.143149 4.003843 7201.275391 4400.295410 
3.360786 3.823025 2365.637695 5298.131348 
3.773678 3.995295 3084.191406 6720.423828 
4.044899 3.556763 3624.995605 4928.537109 
3.411956 3.819768 2972.783691 4152.409668 
3.897121 3.105181 5075.017090 2215.125732 
3.461188 3.383861 3826.844971 2790.500488 
3.444532 3.759434 3478.462891 4925.470703 
4.218952 3.384822 4345.062500 2574.061035 
4.587916 3.900994 11488.011719 3301.448242 
3.518615 4.122246 3828.684326 4143.092773 
3.682477 3.983920 4096.566406 4306.267578 
3.985819 4.187321 3133.701904 3640.862305 
3.395718 3.758538 3454.912354 5137.176758 
3.651972 3.609302 2460.497559 4380.968262 
4.021551 4.284647 3013.861572 6889.582520 
3.301064 4.095266 2271.668213 4491.691406 
3.265218 3.620065 3049.169434 3463.356201 
3.823872 3.477427 5421.605469 2833.184082 
4.152224 4.030087 3459.284668 5054.118652 
3.734472 3.953431 4461.979980 3144.768799 
4.290351 3.733155 3899.845459 2789.323486 
3.672384 4.309254 2756.273926 5194.257812 
3.486553 3.792726 4746.208984 4333.873535 
3.324724 4.074865 2876.562988 5547.379395 
3.598777 4.011419 3660.893311 5130.251953 
3.899965 3.797183 6558.819336 3384.114746 
3.430410 4.133157 2181.890869 4954.259766 
3.775668 3.580702 4247.011719 2770.137207 
3.803277 3.581937 4674.875488 3780.282227 
4.411077 3.552757 7204.949707 3440.297852 
3.664339 3.716290 4645.794922 3002.394531 
3.746011 4.425741 6343.409668 6738.158691 
3.911884 4.460837 3629.461914 6789.997070 
3.779830 3.777704 3945.976074 6130.714844 
4.256424 4.028895 5004.570312 2089.428955 
3.793086 3.509964 2293.810547 2759.039551 
3.185328 3.513907 2420.979248 4494.424805 
3.676158 3.777160 3850.589600 4333.269531 
3.426303 4.592956 1793.061646 5157.896973 
4.250026 3.817575 8068.285156 3919.817627 
3.426602 4.187205 3269.875488 7638.358398 
3.634609 3.425380 3247.338379 3167.725098 
3.910243 3.934476 4670.818848 4036.086426 
4.583257 3.275402 8543.058594 2008.066284 
3.668117 3.813055 2785.421143 3119.410645 
4.538436 3.339506 7274.797363 2117.232178 
4.196451 3.760167 5143.441895 3572.109131 
3.660611 4.001880 2620.296143 6109.005859 
3.715923 4.395044 3434.980957 4601.600586 
4.646361 3.348529 8194.246094 1588.275391 
4.166755 3.855566 4599.958496 2943.822510 
3.994786 3.334008 4849.897461 3126.538330 
3.900311 4.212607 4450.250977 3705.913574 
3.625588 4.085103 2767.852783 6979.938965 
3.392650 3.831020 2880.280518 4870.988281 
3.744721 4.187730 3382.958496 7960.907227 
3.475352 3.482193 3117.897461 3575.457764 
3.453530 3.675582 3102.888916 4471.413086 
4.213379 3.643132 6120.041016 3360.349854 
3.472633 3.331330 3240.148926 3096.027344 
3.991634 3.829331 5748.774414 3677.269775 
4.443530 3.433199 8861.744141 2194.755371 
3.540193 3.432620 4411.417969 4464.153320 
3.222996 4.018307 2078.451904 5773.754395 
4.091728 3.290638 6522.120117 2628.125000 
3.605887 4.351119 3163.962158 7112.488770 
3.448230 3.998250 3370.914062 6169.349121 
3.506627 3.711304 3044.582764 4510.513184 
3.493032 4.210332 4690.611816 2040.450928 
3.761860 3.496399 3349.683838 3107.141602 
4.085244 3.244349 4513.665527 2927.316162 
3.646071 4.186481 2023.716064 5673.840332 
3.749294 4.067497 3901.586182 5625.747070 
3.974532 3.321976 5799.457031 2364.721436 
3.570030 3.555232 6216.958496 2370.450684 
3.743547 4.501866 3563.165283 5933.868652 
3.628811 3.408910 3132.866455 3180.726562 
4.098854 3.448081 3127.065918 3436.855713 
4.642959 3.917927 6751.814941 6496.236816 
3.378739 3.577801 3550.599121 4496.497070 
3.514348 3.930376 3164.248535 4277.709961 
3.824085 3.906398 5200.355469 4279.194336 
3.457566 3.468261 2577.173828 4953.403320 
3.909589 3.944833 2842.565674 4707.273438 
3.682831 3.762578 4149.683594 3974.683838 
3.686777 3.834852 3667.018066 4195.104004 
4.015514 3.833055 6215.104980 2584.576172 
3.461932 4.044867 2666.986328 3482.135010 
3.984563 3.668598 5710.289551 2026.644531 
3.338250 3.759490 2909.496826 5486.437012 
3.696516 3.670790 3422.335449 3537.734375 
3.932699 3.555351 6290.798340 2629.582031 
3.264485 4.187959 3619.010986 6147.697266 
3.760814 3.722524 4576.389160 3456.611572 
4.053692 3.438823 6963.355957 3153.035400 
4.628838 3.411531 3662.289551 2866.340332 
3.417408 3.747008 4282.547363 3787.459961 
4.040395 3.502436 6998.609863 1886.837280 
3.610597 3.614431 5180.875977 4451.768555 
3.413542 4.363182 2751.292969 9017.165039 
3.693367 3.858741 2131.126221 3521.431641 
3.452210 3.771444 3582.021973 3533.680908 
3.533294 4.010617 3133.989258 6491.342285 
3.923903 3.702569 4818.602051 3420.665039 
4.164524 3.790732 5653.358887 2591.882812 
4.017706 3.964312 3759.687744 4327.205078 
3.789669 3.684554 5938.840332 3265.834229 
4.341763 3.894131 6022.398438 2134.747070 
3.689302 4.553571 2808.930908 3999.559570 
3.634805 4.213986 2728.541260 4370.616211 
3.558575 3.871663 2952.298584 6244.652832 
3.440766 3.620224 3249.432373 4261.820312 
3.410306 4.182845 3074.254639 5627.754395 
4.199209 4.699505 4335.430664 8019.913574 
3.304636 3.978523 3385.180664 4648.362793 
3.813951 3.926259 2822.480957 6205.292969 
3.571941 3.610613 3529.986328 5307.741699 
4.361316 3.615650 9930.109375 1658.193848 
3.732820 3.430065 3589.954590 3281.660645 
4.299926 3.814071 9829.197266 4533.445312 
4.062201 3.599482 3813.213867 4105.790039 
4.095374 3.756912 8559.796875 4778.946289 
3.521386 3.898731 4140.113281 6561.333496 
3.523711 4.737037 2593.957275 6301.450684 
3.990224 3.954126 2972.079102 4225.169922 
4.201125 3.304268 5383.087891 1620.230713 
3.619299 3.584450 2852.067627 4123.176270 
3.929477 4.371819 2851.602539 12242.978516 
3.463085 3.804498 3129.883545 5966.749512 
3.586958 4.103456 2187.340332 4578.187988 
3.855103 3.917684 7123.444336 2276.647461 
3.740257 3.545031 4079.105713 2416.079834 
3.726872 3.344496 3145.756104 3030.374756 
3.735157 4.013808 4982.147949 5295.601074 
3.585977 3.790646 4057.570557 4202.423340 
4.305949 3.118319 8077.506348 1988.571899 
3.929558 3.935346 4830.251953 5753.287109 
3.806066 3.549828 4300.164062 4025.023926 
4.369621 3.918218 4156.677734 4077.103760 
3.647397 4.234834 2537.397705 6989.882812 
3.924182 3.835709 5346.126953 2566.263916 
3.367989 4.281261 1259.489136 6878.707520 
3.663967 3.646977 2837.008057 4427.276855 
4.417873 4.082435 4260.807129 4083.760986 
3.477487 4.276276 3128.600586 7714.016113 
4.254611 3.537199 5419.914062 3322.182617 
3.911647 4.269865 5144.531738 2273.879395 
3.940553 3.413550 6461.624512 3036.163330 
3.749914 3.999866 3981.687012 4044.175781 
3.443209 4.277587 2581.195801 6077.083008 
4.029407 3.515653 6719.979980 4114.663574 
3.778643 3.569587 2639.575928 4189.880371 
3.704268 3.511806 3489.598633 4203.089355 
4.170091 3.554832 4115.792969 3682.860107 
4.628500 4.248442 6085.296875 3684.885498 
3.381788 3.668403 3160.539551 4958.744141 
3.814573 4.045609 3629.950928 3699.509521 
3.380098 4.058928 2771.329346 5664.919434 
3.674924 4.352789 4197.075195 3859.723877 
3.388062 4.086783 2570.460449 7525.865723 
4.343016 3.794729 4406.074219 3379.646973 
4.171058 4.424187 4770.915039 3943.757568 
3.792796 3.775368 5513.802246 3978.389648 
3.586511 3.663279 4501.779297 2906.190430 
4.147329 3.849987 5653.315918 5223.272949 
3.876853 3.416848 7134.226562 3069.246338 
3.939777 3.839763 3326.235107 6651.087891 
4.092844 3.219159 6242.147461 3000.267334 
5.451959 3.305463 9309.614258 2952.582031 
3.576808 3.618465 2863.499756 6336.562500 
3.925408 4.257483 3298.244141 6508.062500 
3.542825 4.035414 1914.885254 8045.502441 
3.791475 3.592392 4440.338867 1935.285278 
3.938864 4.463234 2948.013916 6823.337891 
4.016617 3.545403 5419.024902 3538.921387 
4.069099 3.791762 3235.034424 5963.212891 
3.984834 3.359631 3235.555420 3416.902100 
4.077996 3.834044 2559.010254 5441.482910 
4.259601 3.585773 3293.695068 3257.874512 
4.074445 4.182555 2761.277100 6323.559570 
3.712711 3.687294 2866.284180 3892.067871 
3.453085 3.643997 4246.195312 2680.511475 
3.540401 4.248035 2747.890381 6495.823730 
4.004292 3.971642 2044.420654 5442.451172 
4.102382 4.276777 3933.402100 5403.466309 
3.564651 4.315993 3533.273926 8630.243164 
3.656860 4.194263 3323.341797 3960.710693 
3.436762 4.229452 3787.365967 6384.752441 
3.837288 3.650436 3360.047119 4462.499512 
3.830449 3.445937 5084.317871 3456.830078 
4.386577 3.700721 6838.879883 3141.285889 
3.767850 4.371987 3738.172852 6117.237305 
4.089606 3.796678 3912.964844 3373.689453 
3.339859 3.608172 3537.648193 3809.916016 
3.656232 3.797703 4336.267090 4071.103760 
3.810671 3.263095 7454.176270 2370.520996 
3.408809 4.036780 2280.507568 6034.357910 
3.800942 3.277855 5102.472168 2992.647705 
4.142326 3.602037 5214.237305 3680.905273 
3.785935 3.638066 5064.241699 4193.868164 
4.084542 3.897177 6186.003418 2832.752686 
3.692659 3.617002 4213.902832 4995.398438 
3.644278 3.735209 2767.874756 3777.776123 
3.538021 4.017218 5104.693359 4296.131836 
3.438202 3.548771 2772.309082 4084.481934 
3.831454 3.174156 6751.078125 2820.677734 
3.824609 3.611778 4801.791992 4509.836426 
3.855854 3.505682 4060.274414 3680.248535 
3.543754 3.727546 2690.235840 4676.461426 
4.268039 3.699205 5891.826660 3396.404785 
4.189745 3.521200 6922.108887 4483.423340 
3.397816 3.827072 2648.558105 5769.212402 
3.968485 4.026666 2798.024414 8448.243164 
3.831946 4.616286 3745.295898 5227.129395 
3.620383 3.999157 2566.121582 5460.733398 
4.438675 4.206683 4582.184082 3051.051025 
3.759870 4.632348 6371.942871 5364.338379 
3.408501 3.419539 3106.290283 3112.128906 
3.492133 3.784810 4220.840332 3337.198730 
3.424619 4.213817 3738.584717 6125.095703 
4.000786 3.888949 3087.384033 4203.982422 
3.802748 4.081559 5121.052246 3382.110596 
3.811548 3.337426 3573.349121 2826.467529 
3.530893 3.864020 4441.426270 5163.196777 
4.175009 4.368488 4564.831543 5316.404297 
3.334391 3.487364 4421.190918 2880.575928 
3.445683 3.703242 4548.444336 3333.193848 
3.502093 3.984601 4120.701660 4190.563477 
4.079926 4.137406 4790.983398 6552.359863 
3.549543 3.728005 4538.986816 3657.572021 
3.774063 3.485411 3575.238525 2759.609375 
3.908672 4.108635 5375.373047 6382.687500 
3.332070 4.018216 3395.398926 4678.309570 
3.485141 3.802448 3274.504639 4489.316406 
4.225789 3.834229 7738.082520 2828.772949 
3.685283 4.287267 2149.957031 5732.083008 
3.962778 3.822213 4590.029297 6221.579102 
3.906024 3.526860 4128.186035 3560.478516 
3.988064 3.569824 5078.137695 3596.002197 
3.704836 3.766531 5167.732422 2928.076172 
3.434609 4.165546 4009.058594 3949.750244 
3.886460 3.629851 5269.730957 2928.369629 
4.179643 3.101941 6798.816895 1419.152466 
3.765523 3.992698 4029.664307 5330.836914 
3.577023 3.633178 2672.277100 4164.182129 
3.508592 3.933975 2687.112061 5389.853516 
3.832448 3.366464 4816.891602 2305.187988 
3.687604 3.831437 6715.770508 5227.937012 
4.103784 3.693413 5445.843750 4035.497559 
3.460460 3.665581 4194.778809 3290.107910 
4.352232 3.433231 5071.264160 3589.163086 
3.929791 3.737871 5266.314453 4120.000000 
4.266820 3.601749 4991.359863 2576.965820 
3.802924 3.619484 5988.545410 4299.671875 
3.809943 3.929684 3743.790283 4518.664551 
3.997504 3.795370 5193.562500 2879.529297 
3.451737 3.973161 4457.820801 3670.079834 
3.934470 3.559098 3364.075439 3330.227783 
3.570291 4.057015 3956.388184 6076.007812 
4.057366 3.846998 4780.645020 2776.757568 
3.750170 3.584496 3207.579102 2832.092773 
3.741747 4.007967 3180.769775 5276.692871 
3.720609 4.227376 3245.678711 5598.074707 
3.910412 3.631595 4688.118164 2367.321533 
3.784954 3.618298 3331.920166 5249.352539 
3.660476 4.272863 5220.079102 5773.716797 
3.523634 3.891620 2891.390625 6042.442383 
3.259268 4.077439 3722.903564 5029.835938 
3.751115 3.948806 3950.378662 4166.905273 
3.626045 3.643348 3561.571045 3438.376709 
4.051447 3.902229 4306.849121 3168.981689 
3.586290 3.742121 3371.522217 5229.949219 
4.048885 3.765248 4740.051270 3693.477783 
3.852596 3.867723 3214.279053 6373.394043 
3.530627 3.679058 2775.172363 4401.060059 
3.607010 4.062099 3611.802734 6304.995605 
3.353999 3.520169 2368.746582 4820.770020 
4.052073 3.463715 7047.490723 2228.620361 
3.655452 4.170887 3166.072510 6742.985840 
3.234758 3.756177 2231.548584 5053.400391 
4.132579 3.653912 4918.586426 4642.924316 
4.026318 4.040534 4380.737793 4686.672852 
4.007487 3.925323 4263.863770 3291.391602 
3.801839 4.068238 5369.256836 3588.169189 
3.757538 3.907870 2368.662109 5642.492676 
4.252621 3.445595 8432.144531 2105.615967 
3.953544 3.956188 4651.191406 3274.498047 
3.649355 4.019474 4584.130371 5706.023438 
3.880884 3.445979 3833.309814 3090.181885 
3.572934 4.581224 3163.824951 4933.244141 
3.734912 3.425596 4644.226562 2247.096680 
3.445708 3.602665 2817.326416 4222.160645 
3.280158 3.942963 4336.123535 2195.065186 
4.445656 4.043051 7772.459961 7908.923340 
3.696967 4.061205 3940.553711 3504.956299 
4.009217 3.812634 5511.978516 4027.837158 
3.912836 3.766142 6611.152832 2892.644531 
3.598779 3.650250 4691.668457 4008.808105 
4.131820 3.430043 4877.042969 2781.271973 
3.967877 3.546702 4323.191406 5009.930664 
4.795280 3.779780 9908.043945 3385.066162 
4.106631 3.951955 6562.309082 2351.622803 
4.054353 3.855396 3852.491699 3666.060303 
3.746180 3.958065 2700.121582 4094.791260 
4.013324 3.745299 5264.239258 3001.137451 
3.433704 3.818169 3620.508057 4671.408691 
3.269307 4.005130 3190.474854 3574.721191 
3.820700 3.905996 3612.201660 4922.074707 
3.908079 3.174869 7151.709961 1906.301025 
3.692079 3.936457 2475.749268 5508.037109 
3.202150 3.613083 3031.058105 4046.855225 
4.076930 3.811892 8357.583008 3171.298096 
3.721416 3.724560 1794.467285 5045.512207 
3.946242 3.952155 2603.042725 4893.250000 
3.476433 3.894163 2902.022705 3471.239014 
3.575798 4.028122 3428.862549 3649.781006 
3.513184 3.619869 3772.786133 4405.134766 
3.436090 3.938962 1755.418579 4233.679688 
3.675038 3.655429 3992.941650 4495.893066 
3.960443 3.610003 4005.770508 3554.735107 
3.812369 3.486809 4903.375000 2467.657227 
3.741013 3.894809 3153.043945 3229.518066 
3.823786 4.069058 3471.510254 5192.196289 
4.120142 3.652864 8347.739258 3583.352783 
3.767308 3.998505 4220.550781 4132.388184 
3.605221 4.553397 2391.481445 6556.434082 
4.075615 3.574063 2975.822510 4324.224121 
3.757556 4.265167 4588.290039 5050.641113 
3.846674 3.815895 5819.898438 2745.987061 
4.016963 3.550313 4975.253418 2327.232910 
3.484344 4.136040 2978.011475 4653.012695 
3.915010 3.873378 3797.506104 3427.938477 
4.563219 3.656666 4681.282715 3088.164795 
3.670364 3.890111 4950.898926 5802.923828 
4.051253 3.772577 3382.010254 3476.452881 
3.972079 3.692529 3480.407471 4831.732910 
4.097941 4.107624 2733.437012 6304.785645 
3.625781 3.859680 3099.372070 5142.441406 
3.540336 3.428097 2385.457764 2511.758057 
3.920233 3.808090 4528.427246 3524.137939 
4.425967 4.260468 7640.277832 6985.882324 
3.606328 3.998001 4545.161133 3312.446533 
4.063215 3.542352 7431.198730 2717.181641 
3.831802 4.052158 4211.107910 6133.927246 
4.542376 3.553192 9072.809570 3002.733643 
3.803580 3.754323 5766.143555 6067.384766 
3.849476 4.376464 3511.667480 4018.575928 
3.874505 3.795617 3402.694580 6640.563477 
4.255785 3.814252 4434.461914 4064.103760 
4.128997 3.615997 4762.394531 3019.077637 
3.762142 3.786618 2688.433838 3433.472412 
3.647322 4.008868 2003.828003 4617.648438 
3.907154 4.366419 2511.520752 5429.662598 
3.994105 4.174262 6414.516602 3240.608887 
3.540811 3.821908 3612.098389 3446.205566 
3.680527 4.478396 2976.218506 9882.326172 
3.960756 3.403010 2793.666748 1983.665527 
3.951306 3.781671 4903.964355 4297.560547 
3.405186 3.885679 4518.964844 2813.078857 
3.868755 3.744518 2718.747559 4277.652344 
3.742442 3.992362 4777.294922 5063.833496 
3.853650 3.744869 2728.062256 6154.313965 
4.128468 3.749722 3066.220459 3945.117188 
3.520092 3.773711 3123.447510 5523.416016 
3.937719 3.435367 2730.695557 4625.977051 
3.971270 3.319960 5700.526855 2616.965576 
3.828242 3.499624 4883.813477 1794.831787 
3.928987 3.570084 4313.459473 2603.239746 
3.744097 3.594871 4702.852539 3106.357178 
4.655044 3.393249 8191.927246 2262.512695 
4.618201 4.322799 5581.965332 6838.773926 
3.345199 3.704917 2031.585205 4312.285645 
3.853539 4.412642 3976.411621 8086.528809 
3.928366 3.318726 4509.064453 2915.828613 
3.633844 3.457165 5681.471680 5277.101562 
3.518253 3.762400 2443.487305 4329.544434 
4.020759 3.493878 3969.923340 3877.898926 
3.492556 3.498534 5372.391602 2283.738770 
3.595310 4.038976 3449.500732 5014.079590 
3.778944 3.918483 5532.669922 4874.438965 
4.335200 3.812940 6247.182617 4364.579102 
3.043814 3.491271 2434.411621 3588.772705 
4.468888 3.711551 7651.215332 1624.582886 
4.184594 3.769435 6163.828125 2957.078125 
3.224096 3.507574 2317.406982 3615.257324 
3.449863 4.018786 2908.795410 4114.953125 
3.634002 3.968677 3358.345947 8162.331055 
4.008965 3.758836 4628.191895 4012.530029 
3.635191 4.004577 2824.643311 5686.396973 
3.192919 4.299192 2034.920776 6052.518066 
3.795035 4.221200 2574.331787 6208.987305 
3.879468 3.901034 3642.598633 7335.594238 
3.844068 3.706780 4407.997559 4815.281738 
3.465804 3.793068 2483.093994 6210.187012 
4.221315 3.935388 4524.156738 4004.704834 
3.791422 3.893726 4170.409180 5564.802734 
4.048281 4.111391 3728.254395 2891.836670 
3.661112 3.551800 4470.450684 3454.056396 
4.461459 3.532344 3540.300293 4441.071777 
3.619534 3.692105 4078.810791 4030.641357 
4.342103 3.839276 5356.659180 4175.233398 
3.767531 3.746416 3675.088623 3480.919678 
3.800946 3.465790 4037.562744 4060.173340 
3.645055 3.656102 3989.644775 4449.360352 
3.503983 4.122327 3360.465820 5651.183594 
3.905379 3.773786 4735.699707 2632.998291 
3.469054 4.117434 2565.685547 7217.871582 
3.528331 3.685404 2653.985840 3045.259521 
3.527790 3.605137 3864.084717 4487.297363 
3.577075 4.069635 4063.542236 4591.060547 
4.044992 3.705815 3055.239014 3425.896973 
3.613627 4.479033 4197.248047 6193.209473 
4.211322 3.376074 5922.524902 3781.426270 
3.800893 3.546989 4282.677734 5523.437012 
3.928719 3.681900 6313.743164 2982.377930 
4.217319 3.744415 5934.132324 4339.908691 
4.040891 3.537221 7370.380859 2455.168457 
4.072215 4.510590 6403.377441 2708.021240 
3.958275 3.998070 3509.960938 3923.204590 
3.832042 4.180037 4441.063477 7167.640137 
3.598046 3.705690 2570.351562 4822.503418 
4.089010 4.104724 3295.648193 5789.352051 
3.355160 3.891998 4102.625977 2626.731689 
3.919386 3.870887 3124.750977 4417.839355 
3.579340 4.053990 2766.035156 4532.770508 
3.631988 3.534794 3424.619385 3800.101562 
3.909654 3.777895 4713.110840 4670.765137 
3.743565 4.077401 4028.851318 6957.427734 
3.588558 4.474583 1781.970337 4446.771484 
4.275663 3.461468 8626.896484 4203.698242 
4.283628 3.597294 4039.101318 3512.810547 
3.852809 4.002217 3272.861328 3744.888672 
3.435226 4.296790 2497.005859 7047.161133 
3.701403 4.378984 2658.708252 5685.726074 
3.715092 3.714832 4657.732910 2973.111572 
3.772061 3.733848 3653.487305 3560.855469 
3.702377 4.556738 2955.816650 5701.197754 
4.458731 3.901534 5547.435547 3111.016357 
4.491778 3.827719 4887.430664 3684.189453 
3.905421 3.447646 4054.554443 3702.806641 
4.161654 3.561327 6815.729004 3653.572754 
3.676800 3.565004 4034.323486 4062.408691 
4.032765 3.889549 3835.245605 6314.685547 
3.698810 3.584497 6072.783691 2151.203857 
4.249253 3.490840 9833.643555 2316.088379 
4.055645 3.662978 3071.306396 3842.824707 
3.654468 3.937346 4465.319824 5034.260254 
4.529834 3.748614 7105.938965 3127.565918 
3.937264 3.060861 5259.001465 1495.717896 
4.149130 3.536881 8206.071289 3089.341797 
4.422824 3.632565 6429.586426 2126.244873 
3.661805 3.984467 3403.406738 6151.063965 
3.829664 3.864039 4846.946289 3526.859619 
4.001245 3.430324 5143.202148 3516.612793 
3.357083 3.754924 3112.901123 3092.080078 
3.244983 3.945591 2107.774658 6615.580566 
3.654716 3.795308 3778.930908 3197.468018 
4.300487 3.776359 5858.906250 2156.899658 
3.598773 4.089314 4409.276367 5202.687500 
3.982279 4.124676 2520.417725 5324.767090 
4.326101 3.574897 7032.866211 2092.987305 
3.938071 3.700911 5401.613770 3128.723389 
3.725387 3.564564 4597.649414 2091.359619 
3.805685 3.739578 3423.591309 3410.852051 
3.924220 3.798271 6889.853027 2615.587646 
3.629373 3.900418 3405.119385 4284.912598 
4.373188 3.342743 7262.277832 2043.594971 
3.363055 3.562306 3070.787354 3592.623047 
3.737897 3.870354 4883.689453 4749.480469 
3.781823 3.684268 4520.884277 4521.083008 
3.619500 3.791184 3769.548828 3158.895264 
4.418427 3.811816 3706.208984 4103.690918 
3.624444 4.556859 3704.088379 9708.164062 
3.796888 3.815384 5597.559570 3778.937256 
4.131845 3.864954 3641.465576 4359.084473 
3.362672 3.901438 3325.484619 2968.642334 
3.392310 4.640257 1814.493530 7118.645996 
4.049028 3.893483 3830.735352 3747.401855 
4.122081 3.665596 3680.727539 4513.215332 
3.972130 3.781665 4475.954102 4250.585449 
3.509607 3.582444 3511.326172 3159.885010 
3.638417 4.124424 2846.388184 6915.123535 
3.917015 3.829514 2137.830811 5840.782715 
3.662298 3.889856 4365.805664 4481.443359 
3.997782 3.832398 5166.344727 3639.350342 
3.819209 3.718890 4547.004883 5400.537598 
3.808814 3.679305 4573.634766 3962.002686 
4.646799 3.161114 11726.572266 839.205811 
4.439480 3.201312 11265.348633 2112.322754 
4.332165 4.072144 4656.833496 4191.141113 
3.155943 3.898370 1892.790649 6567.677734 
3.775163 4.028969 2804.158691 7769.495117 
3.992018 3.687599 6118.595215 2566.006836 
3.765405 3.236969 4856.788574 1701.555786 
3.762148 3.971176 3796.399414 3836.901611 
3.754835 3.756299 7355.135254 3652.428467 
3.961768 3.975064 3239.652100 3985.603027 
3.306468 4.021817 3433.021729 6275.296387 
3.407945 3.709795 2470.260986 4464.371094 
3.751202 3.629470 5327.138672 3269.849609 
4.062549 4.116911 4901.374512 2629.055908 
3.585404 3.668844 3594.390625 4122.715820 
3.884076 3.788481 4422.111816 3287.055664 
3.927145 3.865391 5665.825195 2747.823975 
4.263310 4.277127 2709.692383 3813.956543 
4.112662 3.795053 5267.076172 4325.796875 
3.636063 3.711606 4425.258789 3755.716064 
4.092091 3.961000 2197.940186 6275.612305 
3.808074 3.878082 3188.152832 4591.493652 
3.680106 3.702330 5573.897949 4467.872559 
4.524433 3.838060 3880.285889 4490.814453 
3.942862 3.615778 3218.788086 2692.487061 
4.105345 3.958051 6799.998047 2423.678223 
3.393007 3.558545 2039.288452 5031.849121 
4.244640 3.588157 5486.464355 2863.556396 
3.915116 4.012207 2961.715088 6100.305664 
4.131206 3.494632 3254.002197 2034.299683 
3.238899 3.760396 2926.541504 3872.665283 
3.575522 3.789141 4048.558105 3315.349121 
3.975208 3.815428 3553.670166 4056.968994 
3.826966 4.040213 2447.176758 4896.291504 
3.244004 4.556596 1882.104370 9724.833008 
3.552132 3.590632 3583.229248 4001.129883 
4.016231 3.385956 4576.744629 2744.819092 
4.586696 4.168311 3858.824951 5414.399902 
3.365106 4.740082 3049.003418 8013.431641 
3.894564 3.844804 4816.218750 7025.840820 
4.004143 3.955924 4536.101562 5026.931152 
3.987022 3.672311 7905.572754 4702.525391 
3.970620 3.263890 6010.735840 2757.961426 
3.928807 3.437409 5813.388672 2946.664307 
4.021128 3.493104 4506.221680 4748.844238 
3.409908 3.778604 2713.200439 5349.911133 
4.140962 4.030471 4380.371582 3287.150879 
3.245242 4.212856 2066.789551 6306.841309 
3.657793 3.700890 4570.565430 4790.313477 
3.471141 4.049280 4243.750977 4508.700195 
3.364262 3.957270 2095.787109 6841.187500 
3.478395 3.877956 2550.727539 5425.099609 
4.071492 3.988436 4264.970703 3025.393555 
3.549728 3.772714 2121.678711 4976.241699 
4.011762 3.856494 6118.337402 2179.688965 
3.538663 4.192918 2501.406982 7405.741699 
3.718376 3.800730 2892.656982 5296.831543 
3.970371 4.602683 5771.741699 2021.607056 
4.550819 3.669758 8143.613770 2867.721436 
3.905764 4.130329 5535.348633 4231.400391 
4.143150 3.533985 5250.703613 2585.959473 
3.276261 3.971839 2439.039062 5046.811523 
3.493138 4.024827 2825.186035 4733.208496 
3.485347 3.473995 2577.172607 3441.459473 
3.739334 3.796647 4609.571777 3669.578369 
3.768646 4.065662 2459.892334 7419.082031 
3.219754 3.860655 1390.240845 6136.061523 
3.930741 3.646254 4034.900391 1989.780518 
3.860084 3.366189 7364.706055 3113.179443 
3.820982 3.704281 3106.693115 3094.679199 
4.320455 3.764624 4525.568848 3424.345215 
3.293454 3.966113 2968.211914 7439.745605 
3.798105 3.954031 3890.088867 6886.833984 
3.893073 3.738435 3910.444824 3892.778564 
4.653382 3.776422 4883.775879 3569.192383 
3.902403 3.927249 4531.181152 5645.637207 
4.179736 3.857484 5559.554199 3465.955322 
3.705080 3.769505 2963.171631 6350.318848 
3.651018 3.739476 4889.339355 4920.185547 
3.644577 3.805902 3176.861084 3148.573975 
3.983001 3.937942 4244.356934 3211.786133 
3.389308 3.924954 3852.832764 6722.238281 
3.421179 3.925867 2998.968018 5933.082520 
3.994957 3.625860 4431.254883 2966.552002 
3.429245 3.183858 3148.669434 2541.169434 
3.610227 3.681112 2664.799072 4790.059082 
3.865743 3.875316 4139.436523 3912.520508 
4.269289 3.797027 3758.473877 5387.623535 
3.855361 4.000745 5821.410156 4036.029541 
3.654711 3.794478 2943.495605 3513.172852 
4.019607 3.863291 4747.350586 2402.872070 
3.993192 3.690232 3721.618652 2252.438721 
4.402575 3.616463 8451.721680 2644.376953 
3.496087 3.648180 3168.934814 3720.162598 
4.040186 3.305876 4704.337402 2765.673340 
3.579358 3.561987 3731.561523 4728.523438 
3.742148 4.212926 3827.857178 3909.777832 
4.010777 3.781280 5636.208496 4027.582520 
3.572481 3.104120 4858.133789 2224.513672 
3.621461 3.496278 3220.821289 2016.044922 
4.021521 4.130618 3659.692383 3548.936035 
4.100445 3.740294 6230.277344 5422.725586 
3.944476 4.588531 4425.326660 6437.245117 
4.312457 3.784250 5870.826172 5372.729004 
4.113973 4.290554 5660.431152 2712.224609 
3.578926 4.045934 2846.436279 4253.986816 
4.013000 4.082597 3264.434814 5907.959473 
3.821138 3.543805 4155.771484 3313.285645 
3.739937 3.160442 4353.213867 2887.643799 
3.377637 3.760258 3306.510986 4319.153809 
3.405735 3.296032 4452.614746 3955.485107 
2.943160 4.673286 1129.464355 7375.468262 
3.582362 4.060607 3265.580566 2660.784668 
3.793258 3.648001 3749.023193 5244.788574 
3.599227 3.802992 3650.152100 3663.742432 
3.895672 3.615878 3326.543945 4338.459961 
3.880562 3.893665 3924.324219 5748.355469 
3.491070 4.013340 1934.034302 5891.084473 
4.061145 3.680197 4058.390625 4611.451660 
3.206593 3.900781 2046.222534 7091.031250 
3.902085 3.763794 6042.187988 3049.362305 
4.280701 3.839979 4552.324707 4365.175293 
3.767903 3.888052 3184.119141 3972.484619 
3.976535 3.707647 3012.718994 4754.666016 
3.572981 4.023727 3157.335205 6999.833984 
3.543732 3.684186 4984.804199 4713.523926 
3.757497 3.910481 3094.989258 5156.638672 
3.828439 4.379594 3361.491211 5639.145020 
4.042878 4.476234 5875.167480 6317.169922 
4.007799 3.561026 4756.646973 3719.971680 
3.569096 4.029196 4272.823730 4161.010254 
3.731000 3.538796 5288.285156 3427.192139 
3.711848 3.762816 3531.255859 4136.696289 
4.411814 3.994302 7878.232910 3829.623047 
3.793867 3.738039 3624.059082 3422.104004 
3.817122 3.148264 4306.992676 2181.175293 
3.537465 3.767456 4943.156738 4155.563477 
3.968451 3.323134 5477.058105 3174.703125 
4.091150 3.423229 3892.650879 2361.541992 
3.539987 4.171894 4370.794434 3272.332275 
3.993079 3.448312 4877.949219 3206.010010 
3.818025 4.075273 6588.402832 3290.904541 
3.661149 3.913085 3880.963623 3308.789062 
3.776152 3.767846 4102.431152 4596.854492 
4.035288 3.752608 5129.961914 3670.136475 
3.735650 3.750439 2568.852295 7261.994629 
4.042364 3.652001 4591.528320 4032.116455 
3.837357 3.579961 5362.253418 2671.540039 
3.748070 3.759912 5353.169922 4072.153564 
4.204524 3.614566 7668.332031 1834.812012 
4.122401 3.784857 4993.896484 3462.458496 
4.362592 3.942130 8477.300781 2747.304688 
4.866444 4.348659 2359.902344 5356.776367 
3.606185 3.770510 2742.220215 4711.648926 
3.804306 3.773169 2980.585449 4729.705078 
4.110397 3.632360 4185.888184 3466.316162 
3.945245 3.339578 5653.423340 2882.397949 
3.941572 3.162161 4604.393066 3051.732666 
3.873726 3.861627 3131.439697 4437.798828 
4.081231 4.142379 3118.060303 4591.730469 
3.689857 3.862827 4566.322266 6137.069336 
3.676331 4.011000 2747.099609 5270.203125 
4.430415 3.408828 7621.367188 3156.044189 
3.482831 3.993477 3950.890137 5410.096680 
3.941300 3.470742 4561.039062 3226.589355 
3.549623 3.364941 3786.642822 3501.353516 
3.788377 3.589991 3506.775635 3397.592041 
3.622035 3.521838 4773.460449 2548.586426 
3.911896 3.792694 5914.819824 3129.984619 
3.886052 3.564342 4149.879883 3728.653320 
4.118489 3.600550 5603.625977 3601.604736 
4.694438 3.368043 8818.400391 2238.956787 
3.940714 3.822122 2355.402344 5262.493652 
4.552162 4.178566 4797.442871 3050.511719 
3.987088 3.814019 3378.716309 2790.202148 
3.679191 3.985963 4256.700684 5367.686523 
3.982646 3.442842 5403.032715 2214.381104 
4.200335 4.415781 7289.422363 4136.960938 
3.900834 3.361701 4972.620117 2529.236084 
3.371626 3.981872 2173.582031 5324.975586 
4.282098 3.783949 7102.912598 2483.608887 
3.979920 3.702040 5582.441406 3700.219727 
4.085029 3.752577 2927.103760 4937.730469 
3.635233 4.286289 3550.133545 6631.137207 
4.063964 4.345688 5499.335938 4920.261230 
3.629632 3.922648 3452.264160 5094.931641 
4.145919 3.562571 7242.644531 2084.407227 
3.374772 3.574981 2476.250977 5305.323242 
3.914520 3.559924 5273.183105 3092.165039 
4.303922 3.988038 5028.739258 4859.579102 
4.012495 3.537616 5268.926270 3656.491943 
3.793073 3.557574 5468.628418 1961.858887 
3.501613 3.989683 3858.343994 5314.562012 
3.607858 4.073647 2736.382080 4605.920410 
4.115983 3.354610 7344.577148 2667.750244 
3.788421 4.024776 3530.317383 4878.280273 
4.430991 3.512930 7888.122070 2052.652832 
3.803545 3.247710 4887.050293 1841.916138 
3.347829 4.293757 2668.107666 7781.213379 
3.644903 3.318220 4260.128906 3398.235107 
3.674736 3.971404 4783.327637 4479.515137 
3.758951 3.889737 3501.042236 5229.282227 
4.237744 3.722552 6718.931641 3573.002930 
3.385455 3.873160 3198.134766 4858.891602 
3.987440 3.641245 4840.348633 3176.223633 
4.170880 3.628720 7158.897461 2163.936035 
3.490538 3.919480 3416.875977 5882.902344 
4.380946 3.732069 5499.544434 6044.945312 
3.321195 3.693305 4373.568359 3541.051025 
4.215699 4.520922 6023.175293 3541.088135 
3.885101 4.199822 3783.034668 7461.223145 
3.824333 3.574315 7848.565918 4418.348633 
3.788283 3.479731 3996.887939 2591.758545 
3.919800 3.811558 5190.718262 7532.882324 
4.102235 3.746267 4041.218506 3004.416504 
3.592366 4.200397 1943.629761 6512.200195 
3.662263 3.347039 5446.697754 1777.771484 
3.693098 3.454300 5476.179199 3673.185059 
4.234773 3.777725 4805.612305 2872.320068 
3.959882 4.065455 3764.465820 6509.344727 
4.299860 3.659985 5661.200684 3309.758789 
3.739340 3.449219 3455.365234 2727.292725 
3.925334 3.538864 3994.108643 4851.389648 
3.964398 4.221948 5758.346191 6542.457031 
3.570456 3.596108 3142.883789 3815.437012 
3.675587 3.385504 6025.562500 3020.251953 
4.337784 4.312401 2908.495850 5018.978027 
3.970195 3.506541 7644.881348 2372.838623 
3.976296 3.770073 3665.522461 6400.623047 
3.732991 4.005625 4531.311035 6449.586914 
3.402444 3.624276 4134.757812 3050.627441 
3.710141 3.627908 4965.174805 3617.446533 
3.536797 3.669831 2647.277100 5073.989258 
3.501341 4.000568 3436.846924 5775.224609 
4.633374 4.298904 3413.969971 3240.421387 
3.683943 3.897915 2853.575928 4220.503418 
3.616279 4.318105 2259.638916 6822.375488 
3.701208 3.973158 2488.443115 3898.725830 
3.736946 4.025306 3688.292969 8463.939453 
3.912674 3.821435 5476.033691 3940.299316 
3.417543 3.901499 2866.274658 3879.439941 
4.012840 3.414241 5544.679688 3333.656250 
3.947319 4.729330 3860.370117 3805.335449 
3.294897 4.194285 3481.438721 7649.283203 
3.668280 3.297027 3402.505371 2230.875732 
4.263216 3.828879 6296.014160 3149.615479 
3.480145 3.937668 3846.928223 4582.271973 
3.943869 3.797318 5404.794434 5227.870605 
4.160419 3.376443 7956.701172 2777.461914 
3.523523 3.521253 3845.126221 4328.436523 
4.009075 3.577391 4282.628906 3713.456055 
3.638456 3.331989 3777.690186 2801.244873 
3.999173 3.439537 2579.241943 2800.912598 
3.925243 3.904662 5512.547852 2539.788574 
3.528713 4.119712 3650.409180 5669.187012 
3.860275 3.991805 4448.819336 3843.441406 
3.791925 4.201920 3494.013672 4170.830078 
3.382674 4.280536 2870.428711 5687.073242 
4.146485 3.218579 4271.838867 1805.537842 
4.286308 3.405497 4061.971680 2233.117920 
