9.763972 1.251072 141775.015625 241.015106 
3.987401 3.769664 5019.916992 3702.445068 
3.711050 3.472868 3377.243896 2741.908203 
3.278796 4.931660 1949.052612 11717.767578 
3.589449 4.055758 3288.623779 8559.022461 
3.963887 4.118459 3935.783936 4276.574219 
4.129907 4.178500 5980.381348 4292.593750 
3.639082 3.519749 4781.248535 3585.431641 
3.808246 3.913836 4748.964355 4457.850586 
3.658167 3.686955 3034.527588 3619.514404 
4.301795 3.213156 7463.979492 2038.837891 
4.101628 3.857452 5944.151367 3786.314697 
3.774412 3.836605 7250.824707 3446.497314 
3.394103 3.905448 2747.192383 4040.231445 
4.480667 3.641924 6758.267578 2070.620850 
4.280347 4.289157 6354.278320 7932.945801 
3.860965 3.463494 4725.750977 2622.980957 
4.033633 3.493345 6241.055176 2260.887207 
3.954502 3.655828 4318.565430 3843.405273 
3.630579 3.892892 3572.131592 4504.535645 
3.680883 4.058018 4426.631836 3105.969238 
3.903648 3.444512 5191.194824 2996.159912 
4.126164 3.642261 3595.703125 3535.925537 
4.117647 3.544421 8733.200195 2348.011475 
3.406920 3.690818 4345.248535 5889.375000 
3.857220 3.582877 3415.789307 3990.131836 
4.180154 4.033360 3088.711182 3900.622559 
3.802339 3.953605 4417.227051 5172.587402 
3.963613 3.290880 4157.828125 2978.214844 
3.402005 4.473547 1961.611450 6744.414551 
3.465868 3.559316 2783.855469 4977.235352 
4.042910 4.149269 4043.503906 3303.044678 
3.648360 3.608194 5508.241699 3231.716064 
4.170131 3.588374 7301.862793 1825.876343 
4.245961 3.814594 4433.240723 4778.738770 
3.824951 4.168136 5679.156250 4027.009277 
4.865583 3.696511 9975.813477 3591.988525 
3.622445 4.095759 2902.702637 4510.138672 
3.455990 3.832425 2772.277100 4793.244629 
3.617185 3.868269 3573.008545 6044.268066 
4.565193 3.685741 4763.618164 3943.151123 
3.656260 3.723713 5858.674805 5059.873535 
3.696383 3.331906 6020.378906 2412.484863 
3.818503 3.908086 3247.140625 3091.880859 
4.121929 3.528665 5981.122559 2626.847656 
3.267322 3.954135 2642.214111 4397.916992 
3.308195 3.695993 3012.220215 3395.625732 
3.902991 4.168223 4183.695801 5842.654297 
4.411212 3.271099 8398.913086 1768.325562 
3.450170 3.660900 2854.220703 4274.667480 
3.757014 3.671749 4105.460938 5274.946777 
3.754238 3.618309 5336.013184 3428.810791 
3.697972 4.113010 5277.159668 2510.740967 
3.726953 3.602920 3668.706543 3834.252197 
3.754647 3.632897 4065.983887 4666.679688 
3.762013 3.499458 5869.902832 2928.811523 
4.136041 4.460165 4136.864746 7255.753906 
3.853569 3.570428 4804.010254 3841.940186 
3.630488 4.337927 4539.341309 6924.157715 
4.069240 3.777193 3396.976074 5390.181152 
4.026608 4.324400 3525.421875 3403.671387 
3.458184 3.468171 2178.025635 2448.115479 
3.857815 4.052854 5101.376953 3110.819580 
3.550526 4.586782 1525.168945 7269.990234 
3.587466 3.959724 3503.481445 3585.568848 
3.917448 4.371115 4714.817871 5003.025879 
3.585236 3.286673 4761.584473 2555.587891 
3.790626 3.733208 4412.476562 4609.799805 
3.821447 4.129024 2893.595703 5565.452637 
4.139289 3.662629 4806.528809 3999.840088 
3.909877 3.617069 4042.084961 4027.000000 
3.954808 4.449161 3963.401367 5900.292969 
4.043567 3.989102 5893.499512 3015.280273 
3.536092 3.965434 1985.035034 7371.707031 
3.985834 3.395591 6428.791992 2641.027588 
3.887152 3.407613 3824.298828 3219.329834 
4.751164 4.024293 5957.601562 5170.766602 
3.758184 3.665988 2422.403809 5692.240723 
3.535696 4.201296 2019.123413 3731.631836 
4.064738 3.575681 7464.519043 3384.385742 
4.476997 3.833182 6186.310547 2633.365234 
4.186026 4.266943 2852.025879 5009.248535 
4.149266 4.178395 3837.342773 5882.409180 
3.628353 3.924906 4150.812988 5118.840332 
3.739961 3.333954 4470.060547 3454.238281 
3.613224 3.749929 5156.788574 4546.065430 
4.077892 4.427218 5053.433105 3726.986816 
3.514324 4.477044 2644.782227 5165.242188 
4.058482 3.862972 3027.831055 3988.129639 
3.313043 3.660717 3368.513428 6179.788574 
3.526430 3.902900 1682.960693 7423.989258 
3.974299 3.541181 4803.166992 3193.764160 
3.842506 3.777553 2892.714844 2922.123779 
3.627373 3.596814 3526.236572 3452.138672 
3.695870 3.698949 5615.471680 4061.668945 
3.919798 4.217069 4408.802246 3471.748291 
3.444016 3.811505 4047.447021 3922.839111 
3.819031 3.816484 4196.678711 4811.392090 
3.971858 4.104569 2957.840088 4082.759033 
3.388962 3.972499 2004.727905 8396.920898 
3.974185 4.459135 2236.035889 7160.484375 
4.064689 4.131699 5778.593750 3423.160645 
3.893577 3.700598 5239.581055 3272.402588 
3.635982 3.942049 3103.725342 5930.864746 
4.075866 4.004964 6058.267090 4650.467285 
3.921444 3.668873 5509.408203 3161.969482 
3.454953 4.458857 4008.260986 6709.211914 
3.948211 3.554498 4054.524170 3994.004150 
3.714841 3.799034 4239.583496 4850.010742 
3.291595 4.435665 2160.087646 6503.714355 
3.675932 4.133928 3402.868896 3371.682617 
4.139805 3.319570 10620.732422 2694.375244 
4.252099 3.335702 5998.521973 3454.478760 
3.802069 4.005498 2461.778809 4793.222168 
3.823364 3.504238 4753.523926 2838.561279 
3.489402 3.671015 1887.407104 3265.850342 
4.566424 3.886486 3728.722412 3799.646973 
3.782315 3.412498 5998.246582 4361.414062 
3.545063 3.725962 4190.279785 3693.569336 
3.695367 3.539738 4488.925781 3240.701416 
3.602368 3.761994 2906.125000 4512.645020 
3.866124 3.752532 2749.222168 5339.169922 
3.512580 3.650907 3168.451172 3685.043457 
3.720960 3.171142 6115.970703 2597.531494 
3.452910 4.021132 2813.586426 7247.527344 
3.781081 3.936351 4827.809570 3518.776123 
3.877432 4.011090 4201.626465 2733.498535 
3.629255 3.845366 3756.449951 4940.370117 
4.172283 3.807910 4755.970215 3536.781006 
3.629614 3.607644 3027.309814 4725.055664 
4.234253 3.828774 3836.963135 3954.875977 
3.913387 4.058881 4972.383789 6550.292969 
4.023638 3.711338 4705.721680 2876.807861 
3.534400 3.948978 3496.663574 5128.256348 
3.787820 3.874809 5430.908691 4363.779297 
3.391510 3.657084 3328.425781 5252.895020 
3.554102 3.902771 3898.196533 4852.849609 
4.001009 3.957446 4290.150879 4985.432617 
3.966362 3.592744 6296.044434 2852.437988 
3.536766 4.055120 1710.562988 6359.014648 
3.541882 3.618901 3410.521973 2649.689941 
3.624733 3.648819 4348.209473 3471.256348 
3.898917 3.445835 4754.939941 3381.392578 
4.106411 3.814590 5868.888184 3657.729492 
3.571447 3.912358 2546.074219 6165.019531 
3.787181 4.322642 2478.904785 9102.743164 
3.721545 3.614418 3935.011475 2485.072998 
3.446437 4.019828 1889.142822 6866.596191 
3.609699 4.068082 2142.245605 8308.134766 
3.687793 3.401041 3395.874268 3268.462402 
4.240529 3.281781 5128.021973 1987.056152 
4.831676 3.187463 10747.931641 1260.772339 
4.185814 3.404900 9981.714844 2273.912354 
4.093186 3.449095 3795.955566 2865.744385 
3.659465 3.831303 4885.583008 3633.987793 
4.553947 3.335871 9118.379883 1776.526001 
4.479640 3.911136 4860.769043 4647.066406 
4.049414 3.287009 3519.679443 2009.816895 
3.039603 4.005986 2357.668213 7217.117676 
3.828723 3.661041 2844.645508 2651.841797 
4.101178 3.460555 7946.652832 2642.572998 
4.449769 3.961620 6192.348633 1915.774414 
3.607543 4.112433 1757.302856 10665.130859 
4.102116 3.261111 6225.428711 2691.814453 
3.392547 3.859373 2527.404053 9680.920898 
3.882231 3.273154 5767.490234 1950.799927 
3.793291 3.556152 3225.624756 6240.853516 
3.447954 3.628007 2375.777100 3816.187012 
3.481851 4.347483 2593.605469 7989.561523 
4.164068 4.037586 6798.863281 5566.339355 
3.984164 4.197383 7041.823242 6506.062988 
4.215020 4.206026 4282.971680 3159.264160 
4.160536 3.636953 5423.220215 2082.954346 
3.623719 3.850470 4089.689209 5476.923340 
4.208714 3.845974 3369.370850 5787.678711 
3.811399 4.036271 5241.997070 3691.618652 
4.126266 3.534140 4339.221680 3804.817871 
3.885383 3.661659 4508.262207 4185.337891 
3.874584 3.541844 5781.335449 4262.057617 
3.228290 4.443197 2343.810303 5913.993164 
3.704011 4.064064 4263.831543 3058.609131 
3.701746 4.098652 4662.258301 4950.405273 
3.553263 3.637499 2365.124023 4341.485840 
4.153668 3.433316 6512.330078 2505.200684 
3.355631 4.257674 2665.052490 5673.735840 
4.127341 3.832864 2435.046143 4926.581543 
4.017920 3.674362 5662.711914 3275.672363 
4.324433 3.219982 7907.614258 2547.567139 
3.664852 3.973425 4369.913086 4726.544922 
3.752644 3.224723 5475.116699 3183.158936 
3.717172 3.252800 4567.531250 2815.331299 
3.962815 4.371477 6256.010254 5469.015137 
3.890275 4.078148 2715.839844 4400.680664 
4.132195 3.799634 7316.243164 2712.605713 
3.981052 3.982898 2575.068848 5542.962891 
3.594649 4.069301 2383.230225 4754.666992 
3.724810 3.398565 4994.978027 2464.649170 
3.465326 4.104040 4322.158203 5000.908691 
3.617662 3.478878 4907.504395 4267.092285 
3.791042 3.675709 3821.856201 3307.574463 
3.498108 4.130129 3363.918945 7082.975098 
3.972090 4.005651 5934.871582 3787.108398 
3.537832 3.884402 2642.238037 5469.172363 
3.896395 3.861582 4441.689941 2813.809814 
4.172341 3.871920 3726.167725 3993.026123 
4.209054 4.011950 4302.208984 4775.458496 
4.363467 3.298117 7291.201660 3132.715332 
4.003039 4.195879 4403.196777 4727.931641 
3.917434 3.818150 4810.201172 3790.988525 
4.028969 4.557456 4006.931396 6423.360352 
3.642823 3.607312 2868.352295 6486.387207 
3.703018 4.310885 3227.581055 5644.736328 
3.992742 3.976214 6724.982422 2208.913086 
4.109721 3.971573 3982.157227 4573.623535 
3.435458 3.378182 3702.488770 2120.463379 
3.645150 3.758965 6264.854980 3057.501709 
3.671693 3.792576 4140.831055 3750.252197 
3.323490 3.698629 2134.985840 4853.557617 
4.586671 3.493507 4264.390625 3684.781494 
3.917411 3.819168 4524.131348 4539.763184 
3.548258 3.839396 2555.960449 4926.670898 
4.023620 3.724079 4641.982422 2986.557617 
4.091064 3.391840 5533.131348 3100.409668 
3.776988 3.620768 5890.169922 2797.743896 
3.773852 3.974305 3393.691162 5482.050293 
3.674692 3.786844 2838.375488 4507.653809 
3.636331 4.416274 3588.810547 6114.479004 
3.694365 3.319653 3328.557373 2552.086426 
4.576398 3.594373 9607.591797 3861.877197 
4.126973 3.607303 5783.642578 3204.374756 
3.974798 4.056165 3685.405518 3919.122803 
4.087770 3.841531 5862.177246 3437.812012 
4.083703 3.820588 6813.952637 4756.348633 
3.436194 4.036541 2424.646973 5771.648926 
3.888470 3.496605 6195.820312 3629.712158 
3.904555 3.712857 5007.509766 5442.292480 
3.617035 4.149398 3757.943359 4976.477051 
3.711335 3.462035 3093.744629 3913.575195 
3.651984 3.872023 2557.066406 4841.703125 
3.909136 3.619021 5625.939941 2754.520996 
3.426180 3.839119 3365.454346 3649.315430 
4.221405 3.380999 6137.814453 1951.411011 
4.344502 3.797118 5744.061523 3449.803955 
3.622212 4.346702 4390.347168 4685.537109 
3.777865 3.445325 4373.548340 3398.228516 
3.351518 3.509530 2265.166504 4646.911133 
3.781516 3.478355 2638.278076 3903.759766 
3.739143 3.676809 2677.363770 4707.745117 
3.668714 3.707302 3310.921387 4591.352051 
3.240249 4.047152 1938.604004 3223.474854 
3.984691 3.628070 2763.548340 4505.533691 
3.485968 4.087972 3723.165039 5199.486328 
4.051202 3.682573 5546.578125 3634.218750 
3.663592 3.750056 2824.930664 6262.568848 
4.124238 3.147864 6722.029785 2365.523193 
3.795640 3.684230 6141.620117 2501.224121 
3.795375 3.393221 5034.181152 2196.647217 
3.709044 3.947006 4630.337891 3613.396240 
4.231837 3.780398 8188.077637 2247.736084 
3.668593 3.644756 2410.780762 3838.184326 
3.939088 3.736320 4775.622070 4679.281250 
4.088562 3.954844 2917.126221 8753.627930 
3.914077 3.613080 2563.218994 4222.162598 
4.173273 3.404532 5995.727539 2543.950195 
3.553650 3.583255 2952.651855 4225.658691 
3.631808 3.399353 4219.276855 2490.889404 
3.614808 4.191752 3086.028320 5869.906250 
3.716637 3.868674 2635.700439 5312.383789 
4.248856 3.442481 8363.642578 1461.629395 
3.910445 3.696950 3579.105225 3000.602051 
3.840115 3.858639 3572.201904 5582.390625 
4.496894 3.426664 4896.103516 3125.884521 
3.805500 3.518218 4808.828613 4100.254395 
3.995817 4.137019 3346.101562 4737.500000 
4.242969 3.303118 9946.041992 2273.392822 
3.654376 3.317935 4890.042969 2253.322021 
3.605750 3.401898 4730.175293 2727.879150 
4.122791 4.153077 7259.439453 4582.641602 
3.930531 3.468410 6216.160156 4287.316406 
4.089409 3.415506 6300.556641 3114.680664 
3.275839 3.665435 2663.453125 4641.409668 
4.609402 3.527036 7956.290039 4737.562500 
3.468919 3.700921 3477.797852 6421.121582 
3.762069 4.187887 2353.535645 3414.418945 
3.728433 3.530224 2906.661865 3601.191650 
3.586021 4.480775 4235.934570 5240.823242 
3.575382 4.042122 4029.530518 8473.869141 
3.348437 4.556368 2484.436523 9906.380859 
3.552272 3.478352 4543.376465 4718.592285 
3.720148 3.458951 4427.062500 3271.477539 
4.256358 3.815997 4317.748047 4956.585449 
3.220518 3.865024 1924.112793 4560.861816 
3.555408 3.921499 4683.367188 5753.973145 
3.849587 3.339051 5769.842773 3121.153564 
4.066083 4.023711 5676.130371 5824.708008 
4.186145 3.489266 4395.602051 3970.511230 
4.291897 5.377188 3922.105469 8958.892578 
3.802668 3.575341 3585.564453 5437.828613 
3.750975 3.995899 3981.523438 5174.994629 
3.654935 3.873648 2589.161133 5709.421387 
3.996321 3.228685 4550.529785 2441.430664 
3.574686 3.586302 3922.642334 2544.373291 
3.227157 3.862313 2720.056396 5231.397949 
3.581573 4.613499 2428.363770 7964.342285 
3.552994 3.609684 2894.089844 2672.802734 
4.166120 3.697115 7466.319336 2915.260010 
3.710431 3.692062 2667.429932 2763.114258 
3.513140 4.119640 3486.107666 9053.643555 
4.113354 4.128664 6794.119141 3285.454590 
4.340705 3.789295 3131.599121 4525.325195 
4.603848 3.738544 5566.576660 5926.412109 
3.745334 3.749724 4216.101562 3716.573242 
3.507618 3.819603 3200.218018 4007.782227 
4.235482 3.667273 4831.538574 2679.214355 
3.451275 3.783001 2967.335449 6506.606934 
3.851898 3.925834 3524.918457 3023.124512 
3.869356 4.136875 4394.030273 5438.724121 
4.142933 4.033195 2325.876709 5644.377441 
3.887018 4.172874 5970.722656 3802.487549 
3.698184 3.836935 3348.548584 3948.427734 
3.927198 4.230175 2268.967773 6647.293945 
3.609354 4.167145 4082.065430 5249.760254 
3.523377 3.387747 5440.433105 2738.107422 
4.166018 3.935153 6672.842773 2745.620117 
4.087192 3.373129 6859.564941 3660.655273 
3.705718 3.761990 4836.295898 5098.657715 
3.928773 3.726004 4081.056152 4823.628418 
4.208914 3.916941 5004.342285 3501.363770 
4.405623 3.543738 7426.964844 2613.545166 
3.932709 4.182572 5371.217285 4400.175781 
3.689654 3.426806 5519.111816 2873.296143 
3.855507 3.637970 4396.573242 2843.634033 
3.763023 3.662006 4852.343750 3389.195801 
3.257958 4.141737 2252.156006 5450.196777 
3.976770 3.436046 4919.536621 3073.721924 
4.381518 3.627402 5875.989258 3288.343506 
4.144627 3.734135 7160.562012 5819.280273 
3.651659 3.603360 3832.484863 2823.732666 
3.994105 3.521974 5799.517578 3715.954834 
5.106056 3.216449 9858.801758 3334.059570 
3.896155 3.984430 8148.334473 2458.887939 
3.241252 4.585363 2421.269531 8312.287109 
3.180862 4.358548 1836.405151 7953.992676 
3.758114 3.518248 5484.015137 2710.507080 
3.561768 3.241141 4744.520996 3454.151367 
3.536842 3.620783 2576.070557 6028.052734 
3.581573 4.805101 3163.113281 4192.114746 
3.255888 3.781445 2350.789062 4456.873535 
3.807742 3.469186 4051.465332 3271.577148 
3.994497 3.488367 6533.551270 1690.078003 
3.988373 3.415375 4359.964355 3291.778076 
4.018074 3.626718 5564.045410 3577.025146 
3.501187 3.873394 3429.983887 6212.504395 
3.939466 3.538299 2902.733643 3303.529541 
3.565975 3.331200 3410.294434 2808.279053 
3.437612 3.741634 2970.632080 3125.231934 
3.649117 3.780478 4480.539551 3697.089844 
4.386592 3.359115 6000.311035 2270.495361 
3.969541 3.764579 5558.096191 3844.766113 
3.810439 4.515267 2407.939697 7190.363770 
3.824177 4.080420 4170.996094 3967.968994 
3.605789 3.716409 4617.619629 3768.055420 
4.723702 3.504371 7823.485352 2735.196777 
3.963660 3.237617 6619.419922 2179.756348 
4.311341 3.366865 5874.621582 2873.088867 
3.343120 3.670097 2427.729004 5079.181641 
3.811851 3.483972 5677.664551 4619.366211 
3.734246 3.636433 4985.126465 4955.474609 
3.523723 3.959306 2863.696289 4937.863281 
3.575223 3.876127 1829.346436 4853.001465 
3.661713 4.791219 3567.519775 7064.654785 
3.659539 4.095282 3193.364502 3435.949707 
4.065686 3.554134 7130.191895 2764.308350 
3.970483 3.684467 5735.327148 3793.043457 
3.812446 3.569050 4106.765137 2401.488770 
3.660555 3.296132 5006.960449 2480.886475 
4.065543 3.561307 5433.736328 2094.145264 
3.744074 3.790603 2659.573975 3502.325928 
4.050639 3.833627 7043.881348 2961.583252 
3.550825 3.666784 2834.931152 6623.556152 
3.572615 3.812078 4051.914551 3543.141846 
3.245709 4.220336 1821.687378 7296.978027 
3.689707 3.653618 2557.186279 3785.326172 
3.799806 3.678313 4778.382324 2773.480225 
4.213487 3.911023 7417.172363 2535.209717 
3.731605 3.459562 5205.238770 1873.394775 
3.512935 4.018337 2748.660156 4713.393555 
4.067436 3.397919 2701.129639 5418.387207 
3.541901 3.759044 2866.802246 4849.560059 
3.364516 4.126119 3304.760742 4210.039062 
4.324188 3.981747 8037.776855 3690.324463 
3.808971 4.034219 1865.815674 7585.575195 
3.597169 4.636268 2888.500732 4438.556152 
3.605037 3.956086 4935.108887 4952.089355 
3.898395 3.687302 5831.243164 2204.720459 
3.129276 3.896666 1570.865723 7253.967285 
3.805513 3.601930 4801.987793 3441.526367 
3.474384 4.055199 4259.060547 2978.875732 
3.316173 4.110682 1809.050415 9011.646484 
4.073159 3.768793 6937.054199 4487.473633 
3.982769 3.847440 5431.447266 3654.326904 
3.891388 3.624039 4924.331543 2905.390381 
3.697742 3.549354 4494.009766 1418.097290 
3.682341 4.717478 4284.141602 10343.255859 
3.797320 3.380610 6601.185059 2466.963135 
3.412943 3.891443 2800.827148 4345.762695 
3.345436 3.968605 3379.767334 5110.406250 
3.940389 3.829720 3610.701660 3568.991211 
3.820038 3.634338 5577.658691 5624.541016 
3.667770 3.623634 4664.896973 3474.601318 
3.796628 3.686145 3769.654541 2240.114502 
4.106640 3.279141 7949.811523 2559.895020 
3.804364 3.661128 5161.055176 2863.224365 
3.258239 3.976613 4542.222656 4412.805664 
3.729054 3.648255 3574.022217 4025.158447 
3.654072 4.044130 3724.770020 4751.195312 
3.767677 3.551558 3012.143311 2681.007324 
3.498356 3.745922 4727.089844 3244.087646 
3.728318 3.978709 3292.117920 4529.577637 
3.337592 4.233761 3959.946045 4291.313965 
5.038228 3.539091 15718.082031 2708.893311 
4.399595 4.042213 3075.922607 3965.674072 
3.651769 3.852137 3992.576904 6018.464355 
3.564613 3.920968 3480.517334 6033.238281 
3.967693 3.568153 3230.465332 4426.723633 
3.222694 4.943656 1839.830078 12813.789062 
3.452544 3.439508 3538.436279 2892.715820 
3.883405 3.777906 3338.578125 6352.512695 
3.425508 3.927827 2880.728760 7061.723145 
4.521641 3.148034 8057.793457 2133.658691 
3.759130 3.813989 5781.893066 1925.104126 
4.298864 3.521118 7068.498535 3362.755859 
3.580359 4.052137 3378.560547 4768.553223 
3.680212 3.752537 5505.843750 3965.276123 
3.486059 3.508446 1919.699097 6118.863770 
3.487906 3.960613 2851.537598 5298.887695 
3.383847 3.798722 3669.186768 3857.310059 
4.085411 3.566665 5235.295898 2225.236572 
3.878394 4.001413 4087.270752 3359.316406 
4.340044 3.940727 5477.719727 3975.869873 
3.507970 3.950936 3399.242188 5523.722656 
3.663818 3.712147 2693.366699 3522.719727 
3.425871 4.202291 3031.868896 7654.871582 
3.671826 3.698286 2862.443359 4232.059570 
3.375365 3.407121 3020.201172 2435.283447 
3.879485 4.140306 5951.630371 3511.223633 
3.276679 3.773139 3907.677979 3925.143555 
3.621405 3.304006 5451.609863 3066.595215 
3.814643 4.388385 3508.057373 4666.483398 
3.748706 4.128835 4281.667969 3755.266846 
4.029527 4.068797 4617.417480 3859.854980 
3.620063 4.096282 3762.167725 5939.622559 
3.744044 3.831607 3505.918457 4959.919922 
3.859876 3.893344 3908.049316 3539.283203 
3.496726 4.206441 3716.551270 7704.662109 
4.150463 3.919634 4837.858887 3010.566895 
3.934794 3.721556 3890.897217 2723.967041 
3.511644 3.545334 3210.725586 3941.330811 
3.767897 3.624603 3802.653320 3924.912842 
3.660070 3.657152 3795.801514 4103.549316 
3.288277 3.613477 2730.956055 4100.004395 
3.963359 3.153326 6012.537109 1782.153320 
3.524560 4.108562 2621.904785 5257.168457 
3.356613 4.115414 3569.895020 4913.112793 
3.329693 3.901556 2816.801514 4959.609863 
4.120632 3.897759 5354.368164 3887.012451 
3.511266 3.348378 4155.790527 2951.353027 
3.950274 3.459618 7065.637695 3266.025146 
3.832587 4.022426 5253.101074 3983.021484 
3.779114 4.162051 4825.555664 3763.114746 
3.880247 3.956299 5598.066406 5987.989258 
3.357581 3.536582 4470.908691 3004.829590 
3.839830 3.991965 5891.374023 6690.274414 
3.315042 3.879437 3696.022217 3078.026855 
3.633388 3.857733 4280.268066 7272.371094 
3.495688 3.813924 3044.719971 3204.856689 
3.511369 3.973406 3734.953369 6084.658691 
3.938915 4.257882 5314.837402 4572.724609 
3.764761 4.106388 3723.995117 6451.012695 
3.710137 3.353040 5570.442383 2422.488525 
3.752228 3.919823 4089.023438 5223.381836 
3.708815 4.153568 4105.916992 4089.785645 
4.014386 3.405203 5465.085938 2715.478760 
4.395643 3.966910 4046.229980 3319.991699 
3.790559 4.054935 3794.083252 6411.094727 
3.417152 3.739484 3039.924316 5324.821777 
3.848136 3.924724 5569.005859 2761.852051 
4.036147 3.567432 4378.516602 4134.902832 
3.998130 3.530853 3912.741943 2253.529785 
3.575458 3.878889 2739.219238 6472.841309 
3.526142 3.880522 2616.644043 7098.126465 
3.594285 3.667521 3032.836426 3531.002197 
4.110614 3.559896 8846.531250 2421.130127 
3.485481 4.226242 3858.845703 3679.985840 
3.529557 4.038424 2553.028320 5515.062988 
3.785244 3.944118 5352.427734 3478.807617 
3.631360 3.738865 3135.834473 3359.303223 
3.733641 3.834250 4440.342285 2807.437988 
3.844887 3.778149 4846.703613 4615.244141 
3.787297 4.575702 3417.096680 6281.974121 
3.734959 3.359568 2647.303467 2984.839844 
4.429555 3.705281 5901.802734 2947.143799 
3.441127 3.807440 3931.464355 5467.592285 
3.562571 4.672440 3041.507324 8561.728516 
4.161248 3.445959 7541.411621 1941.036621 
3.827159 3.784871 2411.227051 2642.273193 
3.740540 4.160763 3196.936279 9510.625000 
4.435009 3.466722 6920.042480 2982.091797 
4.216247 3.543723 6086.039551 2199.424805 
3.862398 3.379641 5724.734375 2747.231689 
3.894676 3.971230 2760.132080 6445.532227 
3.893412 4.140523 4572.573730 1743.943481 
4.199957 3.381873 6028.220215 2676.219482 
3.718567 4.046560 3500.452148 4085.085205 
4.666494 3.349318 6763.401367 4196.251465 
3.273282 3.699661 3156.062012 3261.716553 
4.350229 3.656217 7073.712891 3318.611816 
3.755114 4.464065 2741.626953 7617.554199 
4.004237 3.677529 6391.096191 3445.678467 
3.764701 3.869897 3080.846191 5613.405273 
3.861761 3.797373 3000.055908 6589.482422 
3.522095 3.984491 3934.651123 2628.388184 
4.118360 3.606568 3792.141602 5292.052246 
3.550161 4.213694 3416.609131 3792.260010 
3.817137 4.252646 3601.212158 5681.166992 
3.969990 3.288840 3027.541016 3016.125732 
3.558407 3.998567 3350.384766 6112.639160 
3.576750 4.217937 3267.007080 6398.826172 
3.187733 4.061551 3147.600830 6379.185059 
4.119989 3.923744 3998.892822 3948.596680 
3.847172 3.710798 2909.425293 6771.684082 
3.801447 3.546340 5423.226562 1879.963745 
3.334715 4.111071 2736.697266 6542.486816 
3.928455 3.744717 5402.219238 1951.949097 
4.115829 3.638586 4825.620605 2920.280029 
3.687097 3.627097 4469.127441 2693.986816 
3.987156 3.765648 4627.654785 3021.905273 
3.215987 3.639358 2396.192139 4798.700195 
3.612336 4.110491 2186.989502 7277.399902 
3.737095 3.964444 4096.567871 5483.786621 
4.070266 4.205109 3426.977783 6493.602539 
3.677823 3.977955 4603.875000 6185.464844 
4.045296 3.457681 4950.884766 2871.171387 
3.297607 3.569882 2292.498291 4521.818359 
3.997970 3.942253 6461.229004 6319.730469 
3.923962 3.555776 4678.133301 2996.266113 
3.792463 3.471504 4130.833496 2604.582031 
4.138999 3.560916 9917.944336 2034.795654 
3.586780 3.737423 3445.799805 4648.553223 
3.588578 3.428657 3648.323242 2602.117920 
3.661728 3.369616 3563.030273 4838.938965 
3.682371 3.764695 3284.486328 7500.802246 
3.957061 3.321204 5548.357910 3606.615967 
3.895775 3.735496 3966.145020 4832.049805 
3.274045 3.900052 3383.882324 3531.020020 
3.703533 4.065824 5369.988770 7993.763672 
3.776649 4.140785 3711.375977 5891.668945 
3.552891 4.160689 3608.417480 4020.131592 
3.437651 3.570614 4666.938965 3960.061523 
3.549735 3.852110 3995.073730 4565.617676 
3.699372 3.673767 2914.454102 5568.233887 
3.749571 3.990731 2917.692139 4965.874512 
3.530159 4.426191 2765.233887 7490.707520 
4.077886 4.190207 2489.662354 4869.208984 
3.984614 3.673355 6730.057129 3834.726807 
3.701463 3.695239 3030.257080 4198.514160 
3.793350 3.393718 4787.642578 4834.853027 
3.651371 3.418405 4359.805664 4163.374512 
3.555080 3.847209 3765.210449 4424.158203 
4.337200 3.551180 5129.937012 2909.772217 
3.716620 3.580036 4432.644043 3499.557617 
3.378879 3.799464 3659.390137 3343.848145 
4.024519 3.814880 3393.114502 2988.756592 
4.188134 3.907174 6129.628418 4701.258301 
4.235477 3.572638 4952.580078 2508.092773 
4.088428 3.779131 2348.277344 3535.964844 
3.954393 4.027813 6544.490723 4374.129883 
3.794731 4.016440 3380.588135 4824.170410 
3.350712 4.271665 2450.087646 8693.283203 
3.931901 3.571636 5903.775391 2254.117432 
3.941314 3.532804 9348.462891 4113.685059 
3.600394 4.136257 4734.594238 6098.167480 
3.509936 4.695517 2143.371094 10742.608398 
3.419044 3.756476 2770.772217 4712.484863 
3.521771 3.741386 4309.976074 2836.037109 
3.825887 3.825167 2837.596924 3708.044189 
4.233854 3.733114 4853.801758 2458.406738 
3.675603 4.267547 5888.008301 5287.658691 
3.452455 3.287690 3778.422119 3201.123047 
3.597301 3.565254 5501.363770 3532.443115 
3.714823 3.777726 4255.358398 4357.165039 
3.854553 3.426911 5158.323730 2936.649658 
3.653323 3.558367 4347.942383 3089.831299 
3.836685 3.896547 3621.139160 4811.599121 
3.865109 3.490575 5491.730469 2617.856201 
3.691630 3.947023 3590.283691 5114.324219 
3.361855 3.697845 2294.092529 5355.984863 
3.373870 3.636795 2574.400391 4754.603516 
4.352201 3.473647 3584.115479 3136.703369 
3.808789 3.653565 5351.025879 5479.161133 
3.886029 3.670289 4483.135254 3294.360107 
4.138529 3.450011 5538.824219 3307.149414 
3.666681 3.847476 2060.326172 4262.401855 
3.681488 3.852002 2649.729492 4515.008301 
4.198076 3.653082 2382.840576 6060.678223 
4.101582 3.350218 8161.591309 2213.810303 
3.205073 3.760370 2142.038818 6145.354492 
4.647747 3.980645 6257.574707 2974.315918 
3.229846 3.700243 2948.564941 3981.472656 
4.599228 3.851053 6140.099609 3985.884521 
3.695292 3.247292 3951.884521 2730.864746 
3.420044 3.618139 4284.216797 2868.491455 
3.897460 3.796900 5874.976074 3693.532471 
3.840273 4.053187 5400.998047 7295.250000 
3.909960 3.643944 6107.530273 3136.763428 
3.970821 3.971171 3408.403076 4242.041992 
4.021932 3.487777 3525.188721 2286.118408 
4.303413 3.608832 6267.404297 4684.691406 
3.958724 3.631056 2461.173584 4526.482910 
3.458361 3.464628 5089.463867 2808.616943 
3.430660 3.592529 3909.555176 3699.427734 
3.877625 3.619311 5554.952637 3941.000000 
3.931731 4.224467 4801.095703 3257.468994 
3.934182 3.382711 6433.424316 2314.102051 
4.519777 4.109899 3454.946533 6769.893555 
4.105172 3.887573 7875.135742 6392.833496 
3.566026 4.030026 4500.538574 4874.618164 
3.984788 3.919633 2447.985596 4250.028809 
3.358716 3.469236 3838.461670 3500.824219 
3.559016 3.811029 4307.710938 4328.282715 
3.929835 3.279383 5806.125488 2361.705566 
3.966724 3.711892 4511.495117 4509.125488 
3.795624 4.387220 5316.444824 7575.988281 
4.003909 3.794425 6590.933594 3497.930908 
3.963862 3.698796 3720.646729 5342.902832 
3.987944 3.700986 3243.158936 3028.718750 
4.094186 3.580791 2835.583984 4148.730957 
3.863250 3.646641 4303.353027 3317.358398 
3.923791 4.074137 3988.342041 6145.714844 
4.048286 3.948746 5728.190430 5667.466309 
3.552787 3.684359 3960.323975 4467.421387 
4.067027 3.843562 4086.878662 3880.121094 
4.079105 3.864469 6671.579102 3078.224365 
4.498445 3.558041 3969.467041 5043.228516 
4.139481 3.905451 5445.377930 2967.107666 
3.552414 4.351021 3190.598633 7891.055664 
3.925723 3.807094 5820.629883 5177.681152 
3.694054 3.894238 2255.996826 10604.935547 
3.645286 4.077018 3478.078857 5332.947754 
3.553342 3.463839 5709.851562 3115.080566 
3.259677 3.987572 2622.949219 4700.236816 
4.109916 3.719323 6906.694336 2219.243164 
3.762865 3.941046 2894.322998 5607.806641 
4.492633 3.767406 3156.940918 4852.102051 
4.040772 3.434123 4840.920898 3201.033447 
3.524130 4.005163 3073.065674 4091.519531 
3.742836 3.491983 5128.490234 1903.779907 
4.390126 4.286658 4980.111328 4597.417969 
3.930804 3.612265 6510.926270 3214.246094 
4.474362 3.362534 5659.191406 2574.730225 
3.709758 3.611747 3022.456787 4432.187012 
4.352194 3.379445 9427.152344 2199.836914 
4.024816 3.765688 3406.350098 5013.416016 
3.858750 3.775818 4740.011719 5549.214844 
4.890373 3.792538 7754.158203 3058.142334 
3.871686 3.557504 4732.194824 2262.632324 
3.718143 4.182129 3902.630615 4413.347656 
3.969000 4.388346 2861.891113 8703.349609 
3.950560 4.258804 3740.459717 7289.073730 
4.390124 4.082631 5188.869629 3871.713623 
3.632485 3.907297 3702.846924 7267.255859 
3.973085 3.974370 6293.588867 3070.306641 
3.348675 3.708409 3220.722412 5868.262695 
3.445452 3.823358 4014.167236 2723.236816 
3.250000 3.993224 1323.578613 7728.973145 
3.371059 4.206097 2523.769043 6789.101562 
3.705640 3.281917 2918.115967 2419.676270 
3.361200 3.628757 3024.168213 4171.070801 
3.948739 3.913088 4820.877930 4587.121582 
3.564639 3.450544 4088.586182 4128.568848 
4.457267 3.269018 9213.793945 1484.946655 
3.742661 3.646816 4255.145020 2800.243164 
3.421981 4.290458 2247.747314 6356.587891 
4.057922 4.019334 3691.798828 4338.751953 
4.532668 3.725816 8754.695312 3762.773438 
3.595987 3.842138 3618.396973 3527.295166 
3.558384 3.787345 2913.944092 6985.240723 
3.810257 3.297390 4396.729980 2271.229736 
3.485020 4.105029 3562.303955 6276.023438 
3.735735 4.316462 3137.895020 6474.436523 
3.113723 4.795774 2142.925293 7941.201660 
4.118322 3.864421 8935.015625 3866.956543 
4.610807 4.080692 4317.106934 3730.980225 
3.552092 4.093095 3060.272461 3343.014160 
3.859215 3.700897 4349.584961 2885.291992 
3.769205 3.885422 3144.448242 3744.543457 
3.770089 3.979464 2661.218506 5772.253418 
3.758692 4.106822 2898.100586 2862.023438 
3.596718 3.667357 3574.808105 3037.289062 
3.570755 3.689104 3407.831543 3119.592041 
3.821871 3.760200 4741.253906 4853.937988 
3.638978 3.588843 4360.285645 6475.062988 
3.572317 3.530221 3684.158936 2709.465820 
4.071455 3.449740 6642.981934 2831.089111 
3.709876 3.734529 3458.793213 4877.628418 
3.627060 3.735020 5778.037598 3671.091309 
3.607369 3.309727 4368.472656 2453.739258 
3.671139 3.831818 5641.249512 3218.240234 
3.971930 3.769482 3552.546387 2765.537354 
3.882092 3.877397 2654.926025 5111.445312 
3.699496 4.281233 3613.613037 4778.128906 
4.204347 3.556635 9654.208984 2081.956055 
3.830980 3.998205 4698.569824 6212.959473 
3.675171 3.704648 3616.698486 4682.802246 
3.711429 4.684316 2441.063232 8110.406738 
3.703833 3.612216 3594.270264 4543.012207 
3.255954 4.072285 1946.277222 7029.104980 
3.632038 3.834673 2872.491943 7406.937500 
3.647948 3.817359 2507.251709 4492.264160 
3.303552 3.796166 1801.884399 4441.205566 
3.608106 3.639845 2896.730713 4850.370117 
3.642693 3.770352 2253.552734 3942.306152 
3.711027 3.545044 3266.937500 3161.469971 
3.974746 3.635786 3994.757812 2782.163330 
3.802016 4.016049 5586.784180 5466.420898 
4.100535 3.680008 7289.474121 3977.122559 
3.896568 3.324200 2906.624756 2380.956299 
3.556163 3.732881 3128.324951 3396.477783 
3.491627 4.192895 2341.073975 5298.121094 
3.608869 3.667064 5372.333496 4379.454102 
4.043589 3.757475 5003.180664 6772.608398 
3.884756 3.539850 4509.197266 3701.075439 
3.444489 3.909975 3152.388672 2946.802246 
3.692137 3.560084 4646.455566 3603.892090 
3.589280 3.832008 3531.543945 4097.174805 
3.452033 4.062760 3627.409180 4890.352051 
3.584823 3.600233 3561.682373 3335.790527 
3.552423 3.731295 5131.250488 2745.459229 
3.448539 3.480463 4758.211426 3101.509521 
4.224415 3.790452 5106.853027 4266.870117 
3.818568 3.307366 6122.903320 2460.000244 
3.569431 4.017215 2634.349609 4946.073730 
3.602151 3.975682 3640.528564 3937.964600 
3.759405 3.532181 6957.075684 3190.801758 
4.079347 3.909368 4885.264648 5694.127441 
3.395308 3.760117 2002.292969 7263.568848 
3.727371 3.919932 2195.549072 6271.060059 
3.800903 4.366102 2975.913574 5637.359863 
3.617834 3.758968 3254.578857 4579.254395 
4.457875 3.932311 7407.201660 3774.800049 
3.570709 3.722945 3215.065430 4066.514160 
4.114481 3.791451 4163.338867 4322.967773 
3.320683 3.970407 2263.638672 5090.042969 
3.645557 4.186667 2898.044922 3809.942139 
3.989872 3.761856 7881.410156 2416.805176 
3.286427 4.079390 2826.579346 4867.138672 
4.156459 3.849456 6062.896973 5129.062012 
4.354604 3.637676 2433.668945 6197.687012 
3.455341 3.455925 3573.395020 4548.818848 
3.916823 3.671736 3985.059814 5125.888672 
3.476740 3.642253 3364.549805 3797.698486 
4.350425 3.677687 4726.362305 3305.107666 
3.719120 3.676259 2835.654541 5111.045898 
3.824732 3.992210 4929.260742 3964.509277 
4.106305 3.953763 4140.372559 4071.252930 
3.706068 3.533771 4796.309082 1990.657715 
3.794823 3.967607 5586.992676 3303.232178 
3.822518 4.058581 3983.481934 4448.975586 
3.586617 3.793555 2589.261230 5559.772461 
3.031629 4.032196 1108.934570 8725.929688 
4.083644 4.183537 3406.266357 4250.018555 
3.744272 3.968073 3208.535156 4400.954102 
4.002211 3.830105 5922.354492 3380.682129 
3.741481 3.699943 2979.226074 6111.605469 
4.599676 3.755281 7440.475098 5296.920410 
3.472077 3.871513 3932.056396 6066.954102 
3.784812 3.462058 4738.644043 4218.202637 
3.248034 4.439206 1464.015381 10537.061523 
3.355636 4.168442 1753.215454 7497.085449 
3.330066 4.190693 1809.819824 5884.807129 
3.166992 3.691623 1722.972656 4424.458008 
3.715722 3.421666 4236.930664 2324.841309 
3.707204 3.435432 3467.019775 3721.884521 
4.176317 4.194991 3450.962646 5435.284668 
3.964195 3.866780 5803.414062 2580.121826 
3.849460 3.584610 4871.725586 3537.260254 
3.945698 4.149861 4191.591309 6496.550781 
3.583952 4.262085 2301.860107 6053.892090 
3.652496 4.073303 3272.418945 5514.326660 
3.349082 3.799950 2561.316406 4907.956055 
5.234337 3.682446 6808.050293 3378.401123 
4.094657 3.911927 4113.244629 3812.203369 
3.989552 4.715539 5263.107422 4831.910156 
4.777930 3.686057 8785.292969 4724.062988 
4.286935 3.742909 6672.097168 4561.558594 
4.009039 3.905265 6425.456543 5165.164062 
3.745335 3.613358 4032.210205 3048.977783 
3.650360 3.774027 4327.230957 3563.522217 
3.986162 4.480884 4433.972656 2793.814697 
3.624427 3.778867 3795.764648 4877.541992 
3.722558 3.710002 5702.482910 2649.428223 
3.122953 3.650138 2708.959717 2969.276855 
3.682923 4.153924 2417.797119 6461.307129 
3.885282 3.851603 3966.414795 3361.612061 
3.792614 4.005734 3283.071533 8377.937500 
4.331285 4.027852 6961.052246 3768.481689 
3.849263 3.425207 5159.529297 2532.807129 
3.570392 4.201549 2943.732422 7128.303223 
3.968749 3.672906 5014.234375 2377.873291 
4.058361 3.204343 6637.605957 2396.518311 
3.306591 3.619322 2159.561035 5861.624512 
3.424498 4.044087 2888.255859 5406.167969 
3.759429 3.686434 3493.850830 5994.765137 
3.733745 3.397979 3645.112305 2370.255615 
3.737975 3.723616 5983.695312 2753.286865 
4.374580 3.269830 9213.719727 2958.521240 
4.572623 3.693366 9490.862305 2396.893066 
3.323071 3.776297 3320.519287 7269.862305 
3.373453 3.884561 3509.083008 3328.990723 
3.778593 3.899698 2624.982178 6241.683105 
3.619975 3.281914 5414.860840 3562.870850 
3.446548 4.077671 3176.336670 4133.600098 
4.125127 3.802606 4400.452637 4177.301270 
3.901694 3.452883 5107.104980 4910.758301 
3.838896 3.783304 3715.823975 4534.916504 
3.414262 3.658141 3727.068115 4278.318359 
3.231396 3.765595 2189.036621 7251.722168 
3.549954 3.624420 2809.026123 7654.006348 
3.572366 3.666818 2632.109863 3140.568604 
3.458449 4.081135 2739.429443 9662.476562 
3.772243 4.779391 3528.606445 6036.380371 
4.717298 3.485966 9427.506836 2643.956543 
3.891611 3.545159 5837.911621 2673.185303 
3.835867 4.340830 3532.289551 8882.657227 
3.063895 3.612936 1490.905273 5307.270020 
3.585159 4.886559 4316.877930 5396.056152 
3.817436 4.238634 5156.020996 4750.042480 
3.459998 3.421690 3296.148682 3577.989258 
3.530970 4.046143 3276.308594 6666.321289 
3.653131 3.480009 4756.959473 3165.702881 
3.848452 3.510149 4128.543945 3028.204590 
3.476501 4.479603 2934.141357 8404.235352 
3.662297 3.706382 3324.956299 5150.817383 
3.677039 3.975479 3374.630615 4010.598877 
4.213572 4.035649 8327.397461 2758.180664 
4.094203 3.511284 4621.604980 2332.941650 
4.148050 3.712354 4817.993652 5355.766602 
4.746851 3.800830 7560.717285 3351.374756 
3.513055 3.589794 2956.739014 4894.195801 
3.858869 3.778669 4189.054688 6931.245117 
3.702704 3.571665 2793.335449 3594.049805 
3.276192 4.166265 1738.136475 6630.427246 
3.857537 3.898638 3334.348633 3444.615479 
3.853744 3.872917 2908.202637 4329.989746 
3.770580 3.329341 5292.223145 3169.395752 
3.545002 3.709290 4070.891357 3432.789795 
4.037091 4.084526 4977.574219 2556.104004 
3.426236 3.712007 2431.633545 4667.728027 
3.814456 3.998554 3503.741211 3555.650391 
3.551695 4.423707 2257.125732 5309.178711 
3.301744 3.653176 4142.004395 3462.894775 
4.018333 3.477555 4745.811035 2343.462158 
3.442325 4.350944 3548.167480 6035.651855 
3.605490 3.322621 3260.694336 3150.582764 
4.133336 3.616122 3118.787354 5707.755859 
3.783494 3.947181 4224.492676 3507.359131 
3.473833 3.828651 5163.987305 3893.218750 
3.894144 3.885931 4031.707764 4939.848145 
3.658794 3.722369 4397.550781 3491.807373 
4.009007 3.964297 3697.129395 5279.472656 
3.539720 3.500207 3969.425781 4249.625488 
4.861620 4.220730 3815.230713 7078.147949 
3.805758 4.116123 6049.637207 4665.383301 
3.971190 4.094494 2527.212891 3881.066895 
3.932921 4.274820 4432.301758 2755.402832 
3.911579 3.832189 4518.375977 2387.711914 
4.040533 3.711663 6859.059082 1983.515869 
3.843319 3.981535 3237.002441 4296.659180 
3.410682 4.136962 3809.499756 2946.196289 
3.636951 3.489157 3567.688232 3119.443115 
3.402576 3.840266 2843.700439 5943.077148 
3.972549 3.673681 5196.393066 2622.971436 
3.599330 4.306339 2348.920166 3697.070557 
3.931203 3.969146 3084.568115 5655.904297 
4.073985 4.197197 4488.992188 5157.865723 
4.059135 4.156163 5705.829102 2902.238770 
4.499525 3.874475 3460.808105 5239.892578 
3.724011 4.265879 2924.368652 4337.803223 
3.819076 3.633310 5406.558105 3282.204346 
3.576181 3.672443 2767.759766 5553.004883 
3.782669 4.090960 3030.633789 2691.878174 
4.094984 3.788525 5087.867188 3906.538818 
3.729004 4.244565 3045.551270 5004.381836 
3.687025 3.676481 3227.192139 5170.783203 
3.808296 3.760252 4975.816406 3386.140625 
3.615025 4.279892 2515.294434 5256.826660 
3.610930 3.743644 1853.145752 6016.760254 
4.034614 4.045014 2963.717529 5743.445312 
4.036502 4.381461 7415.308105 3160.446045 
3.606762 3.787590 3848.031006 3109.572510 
3.721642 3.861614 2449.975342 5380.041504 
4.103105 3.945627 4969.900391 2535.713867 
3.546515 3.798093 3417.819824 3221.107422 
3.768878 3.365181 4066.942383 2888.411621 
3.366486 3.788772 2481.142090 4742.589844 
3.939930 3.708584 4921.484863 5536.388672 
3.532774 3.901352 3717.539795 4920.243164 
3.770228 3.942427 3981.880371 5698.575684 
3.696048 3.952935 6480.531250 2315.241211 
3.619295 3.859440 3769.634521 4343.540527 
3.541635 4.418710 3646.958008 4151.186035 
3.751757 3.468736 4585.327637 2688.553223 
3.525147 3.792749 4567.578613 9238.875000 
3.287961 4.257929 2270.884277 3479.085205 
4.066626 4.142012 5818.622070 4085.131836 
3.681967 3.220061 3598.110352 2923.901367 
4.297262 3.390321 7464.890625 2428.430664 
3.479491 3.916103 2800.850586 7160.216797 
4.464766 3.565785 4772.702148 2573.082275 
3.407844 3.906689 3262.528564 3845.733643 
3.839430 4.286777 5034.425781 6330.672852 
3.465771 3.758305 2680.322754 6109.502441 
3.907755 3.659092 1938.311646 5035.119141 
3.503862 3.576186 3970.395752 3542.072998 
3.731979 3.992848 2318.834717 4226.382324 
4.043070 3.588026 4419.459961 4591.652832 
3.951777 3.360332 5922.625000 2939.783447 
4.019689 3.341326 5670.377930 2606.810059 
3.299510 4.326263 2140.337891 8775.545898 
3.600829 3.591837 4944.591797 2341.030762 
3.679412 3.497625 3097.697754 5863.823730 
3.550284 3.738781 3775.343506 4425.899902 
3.677320 4.307559 5370.556152 2681.080322 
4.711740 3.854667 4226.790527 2414.247559 
3.757003 3.768387 2834.408691 5112.373535 
3.980813 3.523711 6237.474121 3729.803223 
3.766375 4.092883 3270.273193 3384.656006 
3.740611 3.356518 3010.823975 3074.187256 
4.055701 3.438465 2776.491943 3127.202393 
4.191189 3.713051 10358.547852 2582.513916 
3.871176 3.571545 4374.405762 3996.747314 
3.509267 3.878319 2512.859619 4268.896973 
3.755666 3.610591 6237.208984 4440.767578 
4.169564 3.729972 7436.247070 3077.744873 
3.882062 4.408011 4785.509766 3290.126465 
3.768807 3.987018 3742.976074 5351.434570 
3.565561 3.630038 3780.104980 4446.196289 
4.025114 3.421693 6060.551270 2137.553955 
3.882795 3.902868 4327.229980 3360.755859 
3.783177 4.081393 4831.676270 4207.478027 
4.331260 3.557841 3111.390381 2480.950928 
3.784833 3.837563 3618.833984 4583.951660 
4.075011 3.319748 8429.967773 2387.323486 
3.993219 3.685875 5371.514648 3095.528809 
3.456514 3.854939 2869.015869 4138.576660 
3.698126 3.790180 6491.749512 2968.213623 
3.903393 3.494782 8547.425781 3073.334961 
3.868922 3.971274 3003.688965 3404.649902 
3.746380 3.741224 3573.294434 2725.017090 
3.858446 3.945700 4590.425781 8568.027344 
3.609066 4.071756 3835.750732 5165.515137 
3.359984 3.851595 2676.201660 4449.787598 
3.638272 3.731511 4385.515625 3753.054932 
3.602928 3.625797 3646.306396 4098.273926 
3.548018 3.849720 4307.841797 5404.454590 
3.984740 3.780270 4436.224121 5626.299316 
3.515451 4.201844 2917.913574 4439.860840 
3.669440 3.405669 4937.108398 2480.444824 
3.640452 3.446118 3944.432129 2716.073975 
3.752882 4.112268 4547.633789 3818.210693 
3.857785 4.891371 4099.060547 5366.474609 
3.721833 3.658443 3365.173828 2718.510010 
3.996513 4.146963 6186.708984 2171.697510 
3.938163 3.464101 3381.461670 4369.710938 
4.323158 3.640508 4622.757812 3214.138184 
3.753356 3.808697 2946.308105 4887.096680 
3.729716 3.955789 3127.038086 4803.964355 
4.054364 3.786593 5660.290527 2543.105225 
3.852066 4.452932 2709.924561 7010.896484 
3.485342 4.077765 3443.667969 5855.279297 
3.551367 4.003912 3308.384033 4087.288330 
3.954679 2.916986 5363.710449 1930.820923 
3.765027 3.953052 4269.724609 2637.269287 
3.728826 4.055285 5258.641113 6700.385254 
3.761248 3.699439 4774.521484 3050.103760 
3.596802 5.103702 3912.408936 6234.130371 
3.277292 3.839874 2514.694336 3097.479980 
3.677731 4.024558 3422.067383 4160.609863 
3.844046 3.761790 4239.833984 3853.294189 
4.438692 3.545825 9231.041016 2944.815918 
4.198403 3.444833 7820.041504 2738.279541 
3.177970 4.358157 2306.176758 6132.878906 
3.293791 4.056226 2905.847900 5448.311035 
3.478843 3.778916 2821.011719 5385.015137 
3.931808 3.624981 4641.885254 2743.921143 
3.611141 5.090535 1978.094727 6240.723633 
3.729011 3.544498 3488.217773 3901.544434 
3.972553 3.608889 5614.590820 4297.746582 
3.649204 3.791505 3500.911865 3760.330322 
3.847792 3.553777 4592.370117 4126.178711 
